# .PCD v0.7 - Point Cloud Data file format
VERSION 0.7
FIELDS x y z
SIZE 4 4 4
TYPE F F F
COUNT 1 1 1
WIDTH 1558
HEIGHT 1
VIEWPOINT 0 0 0 1 0 0 0
POINTS 1558
DATA ascii
151.23 -40.280014 -4.9000092
151.21999 -40.280014 -4.8899989
151.24001 -40.280014 -4.8899989
151.21999 -40.259995 -4.8899989
151.21999 -40.430008 -4.8100128
151.21001 -40.439987 -4.8300018
151.21001 -40.439987 -4.8499908
151.21001 -40.419998 -4.8400121
151.21001 -40.419998 -4.8700099
151.21001 -40.389999 -4.8700099
151.21999 -40.400009 -4.8199921
151.23 -40.389999 -4.8000031
151.02 -40.310013 -4.7700038
151.00002 -40.300003 -4.8300018
151.00002 -40.300003 -4.8600011
151.02 -40.289993 -4.8600011
151.05 -40.280014 -4.8600011
151.02 -40.289993 -4.8300018
151.05 -40.280014 -4.8300018
151.06001 -40.259995 -4.759995
151.00002 -40.300003 -4.8100128
151.02 -40.300003 -4.8000031
151.05 -40.280014 -4.8100128
151.05 -40.280014 -4.780014
151.2 -40.300003 -4.780014
151.23 -40.37001 -4.8199921
151.21999 -40.360001 -4.8600011
151.24001 -40.319992 -4.8499908
151.23 -40.319992 -4.8600011
151.23 -40.310013 -4.8300018
151.23 -40.289993 -4.8600011
151.21001 -40.270004 -4.8499908
151.21001 -40.270004 -4.8600011
151.21001 -40.259995 -4.8600011
151.21001 -40.259995 -4.8700099
151.21001 -40.259995 -4.8499908
151.21999 -40.270004 -4.8499908
151.21999 -40.280014 -4.8600011
151.23 -40.280014 -4.8700099
151.21999 -40.259995 -4.8600011
151.21001 -40.270004 -4.8400121
151.21001 -40.259995 -4.8300018
151.21001 -40.259995 -4.8400121
151.21999 -40.270004 -4.8199921
151.21999 -40.270004 -4.8300018
151.23 -40.280014 -4.8400121
151.24001 -40.280014 -4.8300018
151.21999 -40.259995 -4.8300018
151.23 -40.280014 -4.8199921
151.21999 -40.259995 -4.8199921
151.23 -40.280014 -4.759995
151.21001 -40.289993 -4.7899928
151.21001 -40.270004 -4.7899928
151.21001 -40.270004 -4.8000031
151.21001 -40.280014 -4.8000031
151.21001 -40.280014 -4.7899928
151.23 -40.270004 -4.7899928
151.23 -40.270004 -4.8000031
151.24001 -40.280014 -4.8000031
151.21999 -40.259995 -4.8000031
151.21999 -40.259995 -4.8100128
151.21999 -40.259995 -4.7899928
151.21001 -40.270004 -4.759995
151.21001 -40.280014 -4.759995
151.23 -40.270004 -4.780014
151.24001 -40.280014 -4.7700038
151.23 -40.259995 -4.7700038
151.25999 -40.330002 -4.759995
151.25999 -40.330002 -4.780014
151.25999 -40.310013 -4.8199921
151.25002 -40.289993 -4.8199921
151.25002 -40.310013 -4.8300018
151.25999 -40.330002 -4.8100128
151.25002 -40.289993 -4.759995
151.25999 -40.300003 -4.8000031
151.25999 -40.289993 -4.8100128
151.25002 -40.280014 -4.7899928
151.25999 -40.289993 -4.780014
151.09999 -40.249985 -4.9000092
151.21999 -40.240005 -4.8799901
151.15999 -40.219986 -4.8799901
151.15001 -40.219986 -4.8899989
151.12999 -40.229996 -4.9000092
151.17 -40.229996 -4.9000092
151.21999 -40.240005 -4.8899989
151.2 -40.240005 -4.8799901
151.2 -40.229996 -4.9000092
151.21001 -40.249985 -4.8799901
151.21001 -40.240005 -4.8899989
151.18999 -40.229996 -4.8799901
151.21999 -40.249985 -4.8899989
151.21999 -40.240005 -4.9000092
151.12001 -40.219986 -4.7700038
151.12001 -40.219986 -4.8199921
151.08 -40.249985 -4.8700099
151.11 -40.229996 -4.8499908
151.11 -40.229996 -4.8700099
151.09001 -40.249985 -4.8400121
151.09999 -40.210007 -4.780014
151.08 -40.249985 -4.8100128
151.11 -40.229996 -4.7899928
151.09999 -40.229996 -4.8000031
151.23 -40.240005 -4.759995
151.15999 -40.219986 -4.8199921
151.14 -40.219986 -4.8499908
151.14 -40.219986 -4.8700099
151.15001 -40.219986 -4.8700099
151.15999 -40.219986 -4.8499908
151.17 -40.229996 -4.8700099
151.14 -40.219986 -4.8199921
151.15001 -40.219986 -4.8400121
151.18001 -40.219986 -4.8400121
151.21999 -40.240005 -4.8199921
151.21001 -40.229996 -4.8499908
151.21001 -40.249985 -4.8600011
151.21001 -40.249985 -4.8700099
151.18999 -40.219986 -4.8600011
151.2 -40.229996 -4.8700099
151.21001 -40.229996 -4.8700099
151.21999 -40.240005 -4.8499908
151.21999 -40.240005 -4.8600011
151.21999 -40.249985 -4.8700099
151.21999 -40.249985 -4.8600011
151.21999 -40.249985 -4.8499908
151.21001 -40.249985 -4.8400121
151.18999 -40.229996 -4.8300018
151.2 -40.229996 -4.8400121
151.21001 -40.229996 -4.8300018
151.21001 -40.229996 -4.8400121
151.21999 -40.249985 -4.8199921
151.21999 -40.249985 -4.8300018
151.21999 -40.249985 -4.8400121
151.18001 -40.219986 -4.759995
151.18001 -40.219986 -4.7899928
151.17 -40.219986 -4.8000031
151.18001 -40.219986 -4.8100128
151.14 -40.210007 -4.7899928
151.15001 -40.210007 -4.8100128
151.15999 -40.210007 -4.7899928
151.17 -40.219986 -4.7700038
151.14 -40.210007 -4.759995
151.15999 -40.210007 -4.759995
151.21999 -40.249985 -4.759995
151.2 -40.229996 -4.7899928
151.21001 -40.240005 -4.8100128
151.18999 -40.229996 -4.8000031
151.2 -40.229996 -4.8100128
151.21001 -40.229996 -4.8000031
151.21999 -40.240005 -4.7899928
151.21999 -40.249985 -4.8000031
151.21999 -40.249985 -4.8100128
151.21999 -40.249985 -4.7899928
151.2 -40.240005 -4.759995
151.21001 -40.249985 -4.7700038
151.21001 -40.249985 -4.780014
151.18999 -40.229996 -4.7700038
151.2 -40.229996 -4.759995
151.23 -40.249985 -4.759995
151.21999 -40.240005 -4.7700038
151.21999 -40.249985 -4.780014
151.21999 -40.240005 -4.780014
151.21999 -40.249985 -4.7700038
151.24001 -40.400009 -4.6800079
151.24001 -40.479996 -4.6999969
151.23 -40.499985 -4.7100072
151.24001 -40.389999 -4.7100072
151.05 -40.259995 -4.6299901
151.03999 -40.259995 -4.7100072
151.00002 -40.310013 -4.719986
151.00002 -40.310013 -4.7499852
151.02 -40.310013 -4.740005
151.03999 -40.270004 -4.7299962
151.02 -40.270004 -4.6899872
151.00999 -40.280014 -4.7100072
151.02 -40.259995 -4.6399989
151.02 -40.259995 -4.6699982
151.03999 -40.259995 -4.6800079
151.2 -40.319992 -4.6399989
151.18001 -40.330002 -4.6899872
151.24001 -40.349991 -4.6899872
151.24001 -40.340012 -4.7299962
151.21999 -40.300003 -4.6899872
151.2 -40.300003 -4.719986
151.2 -40.300003 -4.740005
151.2 -40.300003 -4.7499852
151.21001 -40.289993 -4.7499852
151.2 -40.310013 -4.719986
151.2 -40.300003 -4.7299962
151.21001 -40.289993 -4.7299962
151.24001 -40.289993 -4.740005
151.21001 -40.280014 -4.7299962
151.23 -40.280014 -4.7299962
151.23 -40.270004 -4.740005
151.23 -40.280014 -4.740005
151.21999 -40.259995 -4.740005
151.21999 -40.259995 -4.719986
151.21999 -40.259995 -4.7299962
151.2 -40.300003 -4.6999969
151.18999 -40.310013 -4.7100072
151.21001 -40.289993 -4.6999969
151.24001 -40.310013 -4.6899872
151.24001 -40.289993 -4.7100072
151.23 -40.289993 -4.6999969
151.24001 -40.289993 -4.6899872
151.21001 -40.280014 -4.6899872
151.21001 -40.280014 -4.7100072
151.21001 -40.280014 -4.6999969
151.21001 -40.259995 -4.6899872
151.21999 -40.259995 -4.6899872
151.23 -40.280014 -4.7100072
151.21999 -40.259995 -4.7100072
151.23 -40.259995 -4.6899872
151.18001 -40.340012 -4.6699982
151.21999 -40.289993 -4.6399989
151.2 -40.310013 -4.6599879
151.21001 -40.289993 -4.6800079
151.21001 -40.310013 -4.6599879
151.21001 -40.300003 -4.6699982
151.21001 -40.289993 -4.6599879
151.24001 -40.289993 -4.6599879
151.21999 -40.300003 -4.6800079
151.24001 -40.289993 -4.6699982
151.21001 -40.270004 -4.6599879
151.21001 -40.270004 -4.6800079
151.21001 -40.280014 -4.6800079
151.21001 -40.270004 -4.6699982
151.23 -40.280014 -4.6599879
151.21999 -40.270004 -4.6800079
151.21999 -40.259995 -4.6800079
151.21999 -40.259995 -4.6599879
151.23 -40.259995 -4.6599879
151.2 -40.310013 -4.6299901
151.2 -40.310013 -4.6500092
151.2 -40.300003 -4.6399989
151.21001 -40.300003 -4.6399989
151.23 -40.289993 -4.6399989
151.24001 -40.289993 -4.6299901
151.21001 -40.270004 -4.6500092
151.21999 -40.270004 -4.6299901
151.21999 -40.270004 -4.6399989
151.21999 -40.259995 -4.6299901
151.23 -40.37999 -4.509995
151.24001 -40.499985 -4.5800018
151.24001 -40.400009 -4.5699921
151.24001 -40.37999 -4.5900121
151.00999 -40.259995 -4.509995
151.00002 -40.280014 -4.530014
151.00002 -40.259995 -4.5600128
151.2 -40.360001 -4.509995
151.24001 -40.349991 -4.5800018
151.24001 -40.340012 -4.6100011
151.21999 -40.310013 -4.5699921
151.21001 -40.289993 -4.5999908
151.21001 -40.300003 -4.6100011
151.21001 -40.300003 -4.6200099
151.23 -40.289993 -4.6200099
151.24001 -40.289993 -4.6100011
151.21001 -40.280014 -4.5999908
151.21999 -40.280014 -4.5999908
151.23 -40.270004 -4.6100011
151.21999 -40.270004 -4.6200099
151.23 -40.270004 -4.6200099
151.21999 -40.259995 -4.6100011
151.23 -40.259995 -4.5999908
151.21001 -40.310013 -4.5699921
151.21001 -40.289993 -4.5900121
151.23 -40.300003 -4.5900121
151.24001 -40.300003 -4.5800018
151.21999 -40.289993 -4.5900121
151.21001 -40.280014 -4.5900121
151.21999 -40.270004 -4.5800018
151.21999 -40.340012 -4.530014
151.21001 -40.319992 -4.5600128
151.21999 -40.330002 -4.5500031
151.23 -40.330002 -4.5500031
151.2 -40.330002 -4.509995
151.2 -40.330002 -4.5200038
151.2 -40.330002 -4.530014
151.2 -40.319992 -4.5200038
151.21001 -40.319992 -4.530014
151.21001 -40.330002 -4.509995
151.2 -40.319992 -4.509995
151.24001 -40.319992 -4.530014
151.21999 -40.289993 -4.509995
151.2 -40.300003 -4.5500031
151.2 -40.310013 -4.5500031
151.2 -40.310013 -4.5600128
151.21001 -40.310013 -4.5500031
151.21001 -40.300003 -4.5600128
151.21001 -40.289993 -4.5600128
151.21999 -40.310013 -4.5500031
151.21999 -40.270004 -4.5399928
151.21001 -40.300003 -4.509995
151.2 -40.310013 -4.5200038
151.2 -40.310013 -4.530014
151.21001 -40.310013 -4.5200038
151.21001 -40.310013 -4.530014
151.21001 -40.300003 -4.530014
151.21001 -40.289993 -4.5200038
151.23 -40.259995 -4.5200038
151.27 -40.499985 -4.6399989
151.25999 -40.479996 -4.6500092
151.25002 -40.490005 -4.6899872
151.25999 -40.460007 -4.6299901
151.25999 -40.490005 -4.6699982
151.25002 -40.469986 -4.6800079
151.25999 -40.460007 -4.6500092
151.25002 -40.37999 -4.6599879
151.25002 -40.37001 -4.6399989
151.25002 -40.330002 -4.6899872
151.25002 -40.340012 -4.719986
151.25002 -40.300003 -4.7299962
151.25999 -40.340012 -4.6399989
151.25999 -40.330002 -4.6699982
151.25002 -40.319992 -4.6800079
151.25002 -40.319992 -4.6500092
151.25002 -40.289993 -4.6500092
151.25002 -40.289993 -4.6699982
151.25002 -40.400009 -4.5200038
151.27 -40.499985 -4.6100011
151.25999 -40.479996 -4.6200099
151.25002 -40.389999 -4.5999908
151.25002 -40.389999 -4.5500031
151.25002 -40.319992 -4.5200038
151.25002 -40.289993 -4.5999908
151.25002 -40.289993 -4.6200099
151.25999 -40.280014 -4.5999908
151.25002 -40.360001 -4.5399928
151.25002 -40.37001 -4.5600128
151.25002 -40.330002 -4.5600128
151.25002 -40.319992 -4.5500031
151.09999 -40.229996 -4.6299901
151.12001 -40.219986 -4.6299901
151.09999 -40.229996 -4.6899872
151.08 -40.219986 -4.719986
151.06999 -40.249985 -4.740005
151.09999 -40.219986 -4.7499852
151.11 -40.210007 -4.719986
151.12001 -40.210007 -4.740005
151.06999 -40.240005 -4.6899872
151.12001 -40.219986 -4.7100072
151.05 -40.249985 -4.6599879
151.08 -40.229996 -4.6399989
151.06999 -40.249985 -4.6599879
151.12001 -40.229996 -4.6800079
151.09001 -40.249985 -4.6500092
151.23 -40.249985 -4.6299901
151.17 -40.219986 -4.6899872
151.15001 -40.219986 -4.7299962
151.18001 -40.229996 -4.7299962
151.17 -40.219986 -4.740005
151.14 -40.210007 -4.740005
151.15999 -40.219986 -4.6999969
151.17 -40.219986 -4.7100072
151.18001 -40.229996 -4.6999969
151.14 -40.210007 -4.7100072
151.23 -40.249985 -4.6899872
151.21001 -40.240005 -4.719986
151.21001 -40.240005 -4.740005
151.21001 -40.249985 -4.7499852
151.18999 -40.219986 -4.7499852
151.18999 -40.229996 -4.719986
151.2 -40.229996 -4.7299962
151.21999 -40.249985 -4.719986
151.21999 -40.240005 -4.740005
151.23 -40.249985 -4.7499852
151.23 -40.240005 -4.7499852
151.21999 -40.249985 -4.7299962
151.23 -40.249985 -4.7299962
151.21001 -40.240005 -4.6899872
151.21001 -40.229996 -4.7100072
151.18999 -40.229996 -4.6899872
151.2 -40.229996 -4.6999969
151.21999 -40.249985 -4.6999969
151.21999 -40.249985 -4.7100072
151.17 -40.229996 -4.6299901
151.14 -40.229996 -4.6699982
151.15001 -40.229996 -4.6599879
151.17 -40.219986 -4.6599879
151.18001 -40.229996 -4.6699982
151.14 -40.219986 -4.6500092
151.18001 -40.229996 -4.6399989
151.15999 -40.210007 -4.6399989
151.21999 -40.249985 -4.6399989
151.2 -40.240005 -4.6699982
151.2 -40.240005 -4.6800079
151.21001 -40.249985 -4.6599879
151.18999 -40.229996 -4.6599879
151.21999 -40.249985 -4.6599879
151.21999 -40.249985 -4.6800079
151.21999 -40.249985 -4.6699982
151.23 -40.249985 -4.6699982
151.2 -40.240005 -4.6399989
151.21001 -40.240005 -4.6500092
151.21001 -40.240005 -4.6399989
151.23 -40.249985 -4.6399989
151.21999 -40.249985 -4.6500092
151.06999 -40.219986 -4.509995
151.03001 -40.240005 -4.5900121
151.03001 -40.249985 -4.6100011
151.06001 -40.229996 -4.6200099
151.12001 -40.199997 -4.5900121
151.08 -40.219986 -4.6100011
151.09001 -40.199997 -4.5999908
151.08 -40.189987 -4.6100011
151.11 -40.199997 -4.6200099
151.09001 -40.210007 -4.5699921
151.08 -40.199997 -4.5800018
151.03001 -40.249985 -4.509995
151.03001 -40.249985 -4.5399928
151.03001 -40.240005 -4.5600128
151.09001 -40.210007 -4.509995
151.09001 -40.210007 -4.5399928
151.06999 -40.210007 -4.5500031
151.11 -40.199997 -4.5399928
151.11 -40.199997 -4.5600128
151.23 -40.240005 -4.509995
151.17 -40.219986 -4.5699921
151.14 -40.219986 -4.6200099
151.15001 -40.219986 -4.6100011
151.17 -40.229996 -4.5999908
151.18001 -40.240005 -4.6100011
151.14 -40.210007 -4.5999908
151.12999 -40.210007 -4.6100011
151.15999 -40.219986 -4.5900121
151.18001 -40.229996 -4.5900121
151.15001 -40.210007 -4.5699921
151.12999 -40.199997 -4.5800018
151.21999 -40.249985 -4.5699921
151.18999 -40.240005 -4.5999908
151.18999 -40.249985 -4.6100011
151.18999 -40.240005 -4.6200099
151.21001 -40.240005 -4.6100011
151.21001 -40.240005 -4.6200099
151.23 -40.249985 -4.5999908
151.23 -40.249985 -4.6100011
151.21999 -40.249985 -4.6200099
151.21999 -40.240005 -4.6200099
151.21001 -40.240005 -4.5699921
151.2 -40.240005 -4.5800018
151.2 -40.249985 -4.5900121
151.21001 -40.240005 -4.5800018
151.18999 -40.229996 -4.5699921
151.23 -40.249985 -4.5699921
151.23 -40.249985 -4.5800018
151.21999 -40.249985 -4.5900121
151.23 -40.249985 -4.5900121
151.23 -40.240005 -4.5900121
151.18001 -40.219986 -4.509995
151.12999 -40.219986 -4.5500031
151.17 -40.219986 -4.5500031
151.18001 -40.219986 -4.5600128
151.15001 -40.199997 -4.5500031
151.15999 -40.210007 -4.5399928
151.15999 -40.210007 -4.5600128
151.17 -40.229996 -4.5200038
151.18001 -40.219986 -4.530014
151.12999 -40.210007 -4.5200038
151.15001 -40.210007 -4.5200038
151.23 -40.240005 -4.5200038
151.18999 -40.229996 -4.5500031
151.2 -40.229996 -4.5600128
151.21001 -40.229996 -4.5500031
151.21999 -40.240005 -4.5399928
151.23 -40.249985 -4.5500031
151.23 -40.249985 -4.5600128
151.21999 -40.240005 -4.5600128
151.23 -40.249985 -4.5399928
151.21001 -40.229996 -4.509995
151.18999 -40.229996 -4.5200038
151.2 -40.229996 -4.530014
151.21001 -40.229996 -4.5200038
151.23 -40.249985 -4.5200038
151.23 -40.249985 -4.530014
151.21999 -40.229996 -4.530014
151.37001 -40.819992 -4.4399872
151.37001 -40.819992 -4.469986
151.37001 -40.819992 -4.4999852
151.37001 -40.819992 -4.4799962
151.37001 -40.819992 -4.4499969
151.37001 -40.840012 -4.4600072
151.28999 -40.759995 -4.4399872
151.31001 -40.770004 -4.4799962
151.3 -40.759995 -4.4999852
151.3 -40.759995 -4.469986
151.3 -40.759995 -4.4799962
151.3 -40.759995 -4.4499969
151.34999 -40.810013 -4.4399872
151.34001 -40.800003 -4.469986
151.34001 -40.800003 -4.4999852
151.31999 -40.789993 -4.490005
151.33 -40.789993 -4.490005
151.34001 -40.789993 -4.4999852
151.33 -40.789993 -4.469986
151.34999 -40.800003 -4.469986
151.34999 -40.810013 -4.490005
151.34999 -40.810013 -4.4999852
151.34999 -40.800003 -4.4999852
151.36 -40.810013 -4.490005
151.34999 -40.789993 -4.4999852
151.34999 -40.810013 -4.469986
151.36 -40.800003 -4.469986
151.36 -40.810013 -4.4799962
151.34999 -40.789993 -4.4799962
151.33 -40.780014 -4.469986
151.31999 -40.780014 -4.490005
151.36 -40.759995 -4.469986
151.33 -40.800003 -4.4399872
151.34001 -40.800003 -4.4399872
151.34001 -40.789993 -4.4499969
151.34999 -40.800003 -4.4499969
151.36 -40.800003 -4.4600072
151.37001 -40.810013 -4.4600072
151.36 -40.800003 -4.4399872
151.37001 -40.810013 -4.4399872
151.34999 -40.789993 -4.4499969
151.31999 -40.770004 -4.4399872
151.31999 -40.770004 -4.4600072
151.31999 -40.759995 -4.4600072
151.33 -40.780014 -4.4399872
151.34999 -40.819992 -4.4099879
151.37001 -40.819992 -4.4300079
151.37001 -40.819992 -4.4000092
151.31001 -40.759995 -4.4300079
151.33 -40.789993 -4.4099879
151.34001 -40.789993 -4.4199982
151.34999 -40.800003 -4.4199982
151.37001 -40.810013 -4.4300079
151.36 -40.800003 -4.4099879
151.36 -40.810013 -4.4099879
151.37001 -40.810013 -4.4099879
151.34999 -40.789993 -4.4199982
151.31999 -40.770004 -4.4099879
151.31999 -40.759995 -4.4300079
151.33 -40.780014 -4.4099879
151.31999 -40.759995 -4.4099879
151.34001 -40.789993 -4.4000092
151.34999 -40.800003 -4.4000092
151.37001 -40.810013 -4.4000092
151.34999 -40.789993 -4.4000092
151.43999 -40.819992 -4.4000092
151.40999 -40.830002 -4.4499969
151.40999 -40.849991 -4.490005
151.42 -40.849991 -4.490005
151.39 -40.830002 -4.4799962
151.39 -40.840012 -4.4999852
151.37999 -40.819992 -4.490005
151.40001 -40.840012 -4.4799962
151.40999 -40.840012 -4.469986
151.43001 -40.840012 -4.490005
151.40001 -40.840012 -4.4499969
151.39 -40.830002 -4.4600072
151.37999 -40.819992 -4.4399872
151.43001 -40.830002 -4.4399872
151.42 -40.840012 -4.4600072
151.48 -40.819992 -4.4399872
151.46001 -40.840012 -4.4799962
151.45 -40.840012 -4.490005
151.49001 -40.830002 -4.4799962
151.43999 -40.830002 -4.4399872
151.43999 -40.840012 -4.4600072
151.45 -40.840012 -4.4600072
151.46001 -40.830002 -4.4399872
151.49001 -40.819992 -4.4399872
151.46999 -40.840012 -4.4600072
151.49001 -40.830002 -4.4600072
151.39 -40.830002 -4.4099879
151.39 -40.830002 -4.4300079
151.37999 -40.819992 -4.4099879
151.37999 -40.819992 -4.4199982
151.42 -40.830002 -4.4199982
151.40999 -40.830002 -4.4300079
151.43001 -40.830002 -4.4199982
151.40999 -40.819992 -4.4099879
151.42 -40.819992 -4.4000092
151.45 -40.819992 -4.4199982
151.37999 -40.810013 -4.4000092
151.46001 -40.810013 -4.4199982
151.48 -40.810013 -4.4199982
151.45 -40.810013 -4.4000092
151.46999 -40.800003 -4.4000092
151.49001 -40.800003 -4.4000092
151.23 -40.569992 -4.4099879
151.23 -40.599991 -4.4499969
151.24001 -40.580002 -4.490005
151.24001 -40.560013 -4.4399872
151.24001 -40.550003 -4.469986
151.24001 -40.550003 -4.4999852
151.24001 -40.520004 -4.490005
151.24001 -40.520004 -4.4600072
151.24001 -40.520004 -4.4300079
151.28999 -40.740005 -4.4499969
151.28001 -40.740005 -4.469986
151.28001 -40.729996 -4.4999852
151.28999 -40.749985 -4.469986
151.28999 -40.740005 -4.4999852
151.28999 -40.689987 -4.490005
151.28001 -40.719986 -4.4399872
151.28001 -40.729996 -4.4499969
151.28001 -40.689987 -4.4499969
151.36 -40.749985 -4.4999852
151.25002 -40.680008 -4.4499969
151.28999 -40.659988 -4.4999852
151.28001 -40.650009 -4.4999852
151.25999 -40.62999 -4.4999852
151.27 -40.639999 -4.4999852
151.25999 -40.680008 -4.4499969
151.25002 -40.659988 -4.4600072
151.27 -40.669998 -4.4399872
151.25999 -40.639999 -4.4399872
151.28001 -40.719986 -4.4199982
151.28999 -40.749985 -4.4199982
151.31001 -40.740005 -4.4099879
151.3 -40.749985 -4.4199982
151.31001 -40.749985 -4.4099879
151.28999 -40.729996 -4.4199982
151.28999 -40.689987 -4.4099879
151.3 -40.699997 -4.4099879
151.3 -40.740005 -4.4000092
151.28001 -40.680008 -4.4300079
151.25999 -40.659988 -4.4300079
151.28999 -40.669998 -4.4099879
151.27 -40.639999 -4.4199982
151.28999 -40.62999 -4.4300079
151.28001 -40.62999 -4.4000092
151.3 -40.650009 -4.4000092
151.27 -40.580002 -4.4399872
151.25002 -40.62001 -4.469986
151.25002 -40.590012 -4.490005
151.25002 -40.569992 -4.4399872
151.25002 -40.580002 -4.4600072
151.25999 -40.590012 -4.4600072
151.25999 -40.560013 -4.4399872
151.27 -40.599991 -4.4300079
151.3 -40.62001 -4.4099879
151.28001 -40.590012 -4.4099879
151.28001 -40.569992 -4.4199982
151.25999 -40.550003 -4.4199982
151.27 -40.560013 -4.4199982
151.25002 -40.509995 -4.4099879
151.56999 -40.780014 -4.4099879
151.53999 -40.819992 -4.4499969
151.50999 -40.819992 -4.469986
151.50999 -40.819992 -4.490005
151.53001 -40.819992 -4.469986
151.56001 -40.810013 -4.4499969
151.56001 -40.810013 -4.4799962
151.53999 -40.810013 -4.4999852
151.52 -40.810013 -4.4399872
151.59001 -40.800003 -4.4399872
151.59001 -40.789993 -4.490005
151.62001 -40.770004 -4.490005
151.58 -40.800003 -4.4600072
151.62001 -40.759995 -4.4600072
151.50002 -40.810013 -4.4199982
151.52 -40.800003 -4.4199982
151.53999 -40.800003 -4.4300079
151.56001 -40.810013 -4.4300079
151.50999 -40.800003 -4.4000092
151.52 -40.800003 -4.4000092
151.55 -40.789993 -4.4000092
151.59001 -40.780014 -4.4199982
151.64 -40.770004 -4.4999852
151.86 -40.979996 -4.4000092
151.87001 -40.999985 -4.4399872
151.87001 -40.990005 -4.469986
151.87001 -40.969986 -4.4999852
151.87001 -40.979996 -4.4999852
151.87001 -40.949997 -4.469986
151.87001 -40.949997 -4.4999852
151.87001 -40.949997 -4.4799962
151.87001 -40.979996 -4.4399872
151.87001 -40.979996 -4.4499969
151.87001 -40.949997 -4.4399872
151.87001 -40.990005 -4.4099879
151.86 -40.979996 -4.4099879
151.86 -40.840012 -4.4499969
151.86 -40.819992 -4.490005
151.87001 -40.819992 -4.4399872
151.87001 -40.819992 -4.4499969
151.84999 -40.800003 -4.4399872
151.86 -40.789993 -4.469986
151.87001 -40.800003 -4.490005
151.87001 -40.789993 -4.490005
151.86 -40.759995 -4.469986
151.86 -40.759995 -4.4799962
151.86 -40.810013 -4.4499969
151.87001 -40.800003 -4.4600072
151.86 -40.770004 -4.4499969
151.86 -40.759995 -4.4399872
151.86 -40.800003 -4.4000092
151.87001 -40.800003 -4.4099879
151.86 -40.810013 -4.4300079
151.87001 -40.810013 -4.4099879
151.86 -40.800003 -4.4199982
151.86 -40.770004 -4.4099879
151.86 -40.770004 -4.4199982
151.87999 -40.87001 -4.4399872
151.89 -40.849991 -4.4799962
151.89 -40.819992 -4.469986
151.89 -40.819992 -4.4399872
151.89 -40.810013 -4.4600072
151.87999 -40.810013 -4.4799962
151.87999 -40.810013 -4.490005
151.89 -40.810013 -4.4999852
151.87999 -40.87001 -4.4199982
151.89 -40.819992 -4.4099879
151.87999 -40.819992 -4.4199982
151.87999 -40.819992 -4.4000092
151.89 -40.810013 -4.4300079
151.87999 -40.810013 -4.4000092
151.61 -40.749985 -4.4099879
151.65999 -40.729996 -4.4399872
151.65001 -40.749985 -4.4799962
151.68001 -40.729996 -4.469986
151.68001 -40.740005 -4.490005
151.62999 -40.740005 -4.4499969
151.68001 -40.719986 -4.4499969
151.65999 -40.740005 -4.4600072
151.74001 -40.719986 -4.4600072
151.7 -40.740005 -4.469986
151.68999 -40.749985 -4.4999852
151.73 -40.719986 -4.4799962
151.71999 -40.729996 -4.4999852
151.74001 -40.719986 -4.490005
151.71001 -40.719986 -4.4600072
151.71001 -40.710007 -4.4399872
151.73 -40.710007 -4.4499969
151.62999 -40.749985 -4.4199982
151.65999 -40.740005 -4.4000092
151.68999 -40.719986 -4.4199982
151.73 -40.719986 -4.4199982
151.74001 -40.699997 -4.4000092
151.81001 -40.719986 -4.4399872
151.75999 -40.719986 -4.469986
151.75999 -40.719986 -4.4999852
151.78001 -40.719986 -4.490005
151.8 -40.710007 -4.4799962
151.81001 -40.710007 -4.490005
151.75999 -40.719986 -4.4499969
151.78001 -40.719986 -4.4600072
151.8 -40.719986 -4.4499969
151.81001 -40.719986 -4.4600072
151.75002 -40.710007 -4.4399872
151.84999 -40.749985 -4.4399872
151.83 -40.719986 -4.469986
151.83 -40.719986 -4.4999852
151.84001 -40.729996 -4.4799962
151.86 -40.740005 -4.469986
151.84999 -40.740005 -4.4999852
151.86 -40.749985 -4.4999852
151.84999 -40.729996 -4.490005
151.81999 -40.729996 -4.4399872
151.84001 -40.729996 -4.4499969
151.84999 -40.740005 -4.4600072
151.75999 -40.719986 -4.4199982
151.78001 -40.719986 -4.4300079
151.8 -40.719986 -4.4199982
151.75002 -40.710007 -4.4099879
151.78001 -40.710007 -4.4099879
151.81001 -40.710007 -4.4099879
151.77 -40.710007 -4.4000092
151.8 -40.710007 -4.4000092
151.84001 -40.740005 -4.4000092
151.83 -40.719986 -4.4199982
151.84001 -40.749985 -4.4300079
151.84001 -40.729996 -4.4300079
151.86 -40.749985 -4.4099879
151.84001 -40.749985 -4.4000092
151.23 -40.449997 -4.4099879
151.23 -40.439987 -4.4399872
151.23 -40.389999 -4.4499969
151.24001 -40.419998 -4.4799962
151.24001 -40.400009 -4.469986
151.24001 -40.389999 -4.4999852
151.23 -40.389999 -4.4799962
151.21999 -40.419998 -4.4099879
151.23 -40.419998 -4.4300079
151.23 -40.37999 -4.4099879
151.00999 -40.259995 -4.4600072
151.00999 -40.259995 -4.4300079
151.21001 -40.349991 -4.4000092
151.23 -40.37001 -4.4399872
151.2 -40.360001 -4.4799962
151.21001 -40.360001 -4.490005
151.21001 -40.360001 -4.469986
151.23 -40.360001 -4.469986
151.21001 -40.319992 -4.4799962
151.2 -40.319992 -4.490005
151.21999 -40.330002 -4.469986
151.23 -40.319992 -4.4600072
151.21999 -40.310013 -4.4399872
151.21001 -40.300003 -4.469986
151.21001 -40.300003 -4.490005
151.21001 -40.310013 -4.4999852
151.21001 -40.300003 -4.4999852
151.21001 -40.310013 -4.490005
151.21001 -40.300003 -4.4799962
151.21999 -40.300003 -4.469986
151.23 -40.300003 -4.469986
151.21999 -40.310013 -4.4799962
151.21999 -40.289993 -4.469986
151.21999 -40.289993 -4.4799962
151.23 -40.270004 -4.469986
151.21999 -40.270004 -4.490005
151.23 -40.270004 -4.490005
151.23 -40.259995 -4.490005
151.23 -40.259995 -4.4999852
151.23 -40.259995 -4.4799962
151.23 -40.300003 -4.4499969
151.21999 -40.300003 -4.4600072
151.21999 -40.270004 -4.4399872
151.21999 -40.270004 -4.4600072
151.21999 -40.280014 -4.4600072
151.23 -40.280014 -4.4600072
151.23 -40.270004 -4.4600072
151.23 -40.259995 -4.4600072
151.23 -40.270004 -4.4399872
151.23 -40.280014 -4.4399872
151.23 -40.259995 -4.4499969
151.21999 -40.349991 -4.4099879
151.21001 -40.330002 -4.4000092
151.23 -40.270004 -4.4099879
151.23 -40.270004 -4.4300079
151.21999 -40.280014 -4.4300079
151.23 -40.270004 -4.4199982
151.23 -40.259995 -4.4099879
151.23 -40.270004 -4.4000092
151.23 -40.259995 -4.4000092
151.09001 -40.210007 -4.4000092
151.06001 -40.240005 -4.4499969
151.00999 -40.249985 -4.490005
151.03999 -40.229996 -4.490005
151.03999 -40.229996 -4.4600072
151.11 -40.219986 -4.4399872
151.06999 -40.219986 -4.490005
151.09001 -40.210007 -4.4799962
151.11 -40.210007 -4.4799962
151.11 -40.210007 -4.4999852
151.09001 -40.219986 -4.4499969
151.06001 -40.240005 -4.4199982
151.03999 -40.240005 -4.4300079
151.08 -40.229996 -4.4199982
151.11 -40.210007 -4.4199982
151.23 -40.249985 -4.4000092
151.15999 -40.219986 -4.4499969
151.14 -40.219986 -4.4799962
151.15999 -40.219986 -4.469986
151.17 -40.219986 -4.490005
151.15999 -40.219986 -4.4999852
151.18001 -40.219986 -4.4799962
151.12999 -40.210007 -4.469986
151.12999 -40.210007 -4.4999852
151.15001 -40.219986 -4.4600072
151.18001 -40.229996 -4.4499969
151.17 -40.229996 -4.4600072
151.12999 -40.210007 -4.4399872
151.21999 -40.240005 -4.4399872
151.21001 -40.240005 -4.469986
151.2 -40.219986 -4.490005
151.21001 -40.229996 -4.490005
151.21001 -40.229996 -4.4799962
151.23 -40.249985 -4.469986
151.23 -40.240005 -4.490005
151.23 -40.249985 -4.4999852
151.21999 -40.229996 -4.4999852
151.23 -40.240005 -4.4799962
151.24001 -40.240005 -4.469986
151.21999 -40.229996 -4.469986
151.2 -40.240005 -4.4499969
151.18999 -40.240005 -4.4600072
151.23 -40.249985 -4.4399872
151.23 -40.240005 -4.4600072
151.23 -40.249985 -4.4600072
151.18001 -40.240005 -4.4199982
151.15999 -40.240005 -4.4300079
151.17 -40.219986 -4.4099879
151.15999 -40.219986 -4.4199982
151.12999 -40.210007 -4.4099879
151.15001 -40.210007 -4.4300079
151.15001 -40.219986 -4.4000092
151.21001 -40.249985 -4.4099879
151.18999 -40.240005 -4.4300079
151.21001 -40.240005 -4.4300079
151.18999 -40.229996 -4.4099879
151.2 -40.229996 -4.4199982
151.23 -40.249985 -4.4099879
151.23 -40.249985 -4.4300079
151.21999 -40.249985 -4.4199982
151.2 -40.240005 -4.4000092
151.21001 -40.249985 -4.4000092
151.18999 -40.219986 -4.4000092
153.99001 -42.650009 -4.6299901
153.98 -42.639999 -4.6299901
153.96999 -42.659988 -4.8899989
153.99001 -42.669998 -4.8899989
153.90999 -42.62999 -4.8799901
153.93001 -42.639999 -4.8799901
153.96999 -42.650009 -4.9000092
153.95 -42.639999 -4.9000092
153.93001 -42.62001 -4.9000092
153.89 -42.610001 -4.8899989
153.90001 -42.62001 -4.9000092
153.99001 -42.659988 -4.759995
153.92 -42.62999 -4.8700099
153.98 -42.659988 -4.8199921
153.96999 -42.659988 -4.8600011
153.98 -42.659988 -4.8700099
153.99001 -42.659988 -4.8600011
153.93999 -42.62999 -4.8600011
153.95 -42.639999 -4.8700099
153.96999 -42.650009 -4.8700099
153.98 -42.659988 -4.8300018
153.98 -42.659988 -4.8400121
153.99001 -42.659988 -4.8400121
153.93999 -42.62999 -4.8300018
153.95 -42.62999 -4.8400121
153.96999 -42.650009 -4.8400121
153.93001 -42.62999 -4.7899928
153.93001 -42.62999 -4.8100128
153.99001 -42.659988 -4.780014
153.98 -42.659988 -4.7899928
153.98 -42.659988 -4.8000031
153.99001 -42.659988 -4.8100128
153.95 -42.62999 -4.7899928
153.93999 -42.62999 -4.8000031
153.95 -42.639999 -4.8100128
153.96999 -42.650009 -4.7899928
153.96999 -42.650009 -4.8100128
153.95 -42.62999 -4.759995
153.96999 -42.650009 -4.759995
153.98 -42.650009 -4.780014
153.87001 -42.509995 -4.8000031
153.86 -42.520004 -4.8199921
153.95 -42.62001 -4.759995
153.90999 -42.62001 -4.8300018
153.89 -42.62001 -4.8499908
153.90001 -42.62001 -4.8700099
153.90999 -42.62001 -4.8600011
153.89 -42.590012 -4.8600011
153.87999 -42.610001 -4.8199921
153.89 -42.62001 -4.8300018
153.90001 -42.62001 -4.8400121
153.90001 -42.62001 -4.8199921
153.93001 -42.62001 -4.8400121
153.87999 -42.530014 -4.8600011
153.93001 -42.62001 -4.759995
153.89 -42.610001 -4.8100128
153.87999 -42.599991 -4.8000031
153.90999 -42.62001 -4.7899928
153.92 -42.62001 -4.8000031
153.90001 -42.599991 -4.759995
153.90001 -42.610001 -4.780014
153.89 -42.599991 -4.7700038
153.90999 -42.610001 -4.7700038
153.92 -42.62001 -4.780014
153.93999 -42.62001 -4.780014
153.99001 -42.639999 -4.6500092
153.96001 -42.62999 -4.6299901
153.93001 -42.62999 -4.6999969
153.98 -42.659988 -4.6899872
153.98 -42.659988 -4.719986
153.99001 -42.659988 -4.7499852
153.99001 -42.669998 -4.719986
153.99001 -42.659988 -4.7299962
153.93999 -42.639999 -4.719986
153.95 -42.639999 -4.7299962
153.96001 -42.639999 -4.719986
153.96999 -42.650009 -4.7299962
153.98 -42.650009 -4.7499852
153.98 -42.669998 -4.6999969
153.99001 -42.669998 -4.6899872
153.96001 -42.650009 -4.6899872
153.93999 -42.62999 -4.6899872
153.95 -42.639999 -4.6999969
153.96999 -42.650009 -4.6999969
153.99001 -42.659988 -4.6599879
153.99001 -42.659988 -4.6800079
153.95 -42.62999 -4.6699982
153.96001 -42.639999 -4.6800079
153.96001 -42.62999 -4.6599879
153.98 -42.650009 -4.6699982
153.96999 -42.650009 -4.6800079
153.98 -42.639999 -4.6599879
153.93999 -42.62001 -4.6299901
153.92 -42.62001 -4.6999969
153.90001 -42.599991 -4.7299962
153.92 -42.62001 -4.719986
153.90999 -42.610001 -4.740005
153.92 -42.610001 -4.7499852
153.93001 -42.62001 -4.740005
153.89 -42.580002 -4.7499852
153.90001 -42.599991 -4.6999969
153.90999 -42.62001 -4.7100072
153.90001 -42.560013 -4.7100072
153.90001 -42.560013 -4.740005
153.90999 -42.610001 -4.6299901
153.90001 -42.610001 -4.6699982
153.92 -42.62001 -4.6699982
153.90999 -42.610001 -4.6800079
153.93001 -42.62001 -4.6800079
153.90001 -42.580002 -4.6699982
153.90001 -42.610001 -4.6399989
153.92 -42.62001 -4.6399989
153.90999 -42.610001 -4.6500092
153.93001 -42.62001 -4.6500092
153.90001 -42.569992 -4.6500092
153.95 -42.62001 -4.6399989
153.99001 -42.659988 -4.5200038
153.99001 -42.650009 -4.5900121
153.96001 -42.639999 -4.5999908
153.95 -42.62999 -4.6100011
153.98 -42.639999 -4.5999908
153.99001 -42.650009 -4.6200099
153.96001 -42.62999 -4.5699921
153.95 -42.62999 -4.5900121
153.98 -42.639999 -4.5800018
153.99001 -42.659988 -4.530014
153.99001 -42.659988 -4.5500031
153.93999 -42.62999 -4.5500031
153.95 -42.62999 -4.5600128
153.96001 -42.62999 -4.5500031
153.98 -42.650009 -4.5500031
153.99001 -42.650009 -4.5600128
153.95 -42.62999 -4.509995
153.93999 -42.62999 -4.5200038
153.95 -42.62999 -4.530014
153.96001 -42.639999 -4.5200038
153.99001 -42.650009 -4.509995
153.98 -42.650009 -4.5200038
153.93001 -42.62001 -4.509995
153.90999 -42.62001 -4.5699921
153.89 -42.599991 -4.5999908
153.90001 -42.610001 -4.6200099
153.90999 -42.62001 -4.5999908
153.92 -42.62001 -4.6100011
153.89 -42.610001 -4.5699921
153.90001 -42.62001 -4.5800018
153.93001 -42.62001 -4.5900121
153.93999 -42.62001 -4.5699921
153.93999 -42.62001 -4.5999908
153.90999 -42.62001 -4.5200038
153.89 -42.610001 -4.5500031
153.90001 -42.62001 -4.5600128
153.90999 -42.62001 -4.5399928
153.92 -42.62001 -4.5600128
153.89 -42.610001 -4.5200038
153.90001 -42.62001 -4.530014
153.92 -42.62001 -4.530014
153.24001 -42.189987 -4.6299901
153.37001 -42.259995 -4.8899989
153.34999 -42.259995 -4.9000092
153.36 -42.259995 -4.9000092
153.49001 -42.270004 -4.8899989
153.42 -42.289993 -4.8899989
153.40999 -42.289993 -4.9000092
153.40001 -42.270004 -4.8899989
153.39 -42.270004 -4.9000092
153.37999 -42.259995 -4.8899989
153.40001 -42.259995 -4.8799901
153.40999 -42.280014 -4.8799901
153.43001 -42.270004 -4.8799901
153.48 -42.259995 -4.8799901
153.45 -42.270004 -4.8799901
153.45 -42.280014 -4.9000092
153.43999 -42.270004 -4.8899989
153.46001 -42.270004 -4.8899989
153.48 -42.270004 -4.9000092
153.37001 -42.259995 -4.8700099
153.46999 -42.270004 -4.759995
153.42 -42.259995 -4.8600011
153.40999 -42.259995 -4.8700099
153.48 -42.259995 -4.8199921
153.43999 -42.270004 -4.8700099
153.43999 -42.259995 -4.8600011
153.46001 -42.259995 -4.8600011
153.46999 -42.259995 -4.8499908
153.46999 -42.259995 -4.8700099
153.45 -42.259995 -4.8199921
153.43999 -42.259995 -4.8300018
153.45 -42.259995 -4.8400121
153.46001 -42.259995 -4.8300018
153.49001 -42.259995 -4.8300018
153.43001 -42.280014 -4.759995
153.43001 -42.259995 -4.780014
153.49001 -42.270004 -4.7700038
153.46001 -42.270004 -4.8000031
153.43999 -42.259995 -4.8000031
153.46999 -42.259995 -4.7899928
153.49001 -42.259995 -4.8000031
153.45 -42.270004 -4.780014
153.46001 -42.270004 -4.7700038
153.23 -42.180008 -4.8799901
153.23 -42.180008 -4.9000092
153.24001 -42.180008 -4.9000092
153.2 -42.12999 -4.9000092
153.2 -42.139999 -4.9000092
153.2 -42.099991 -4.8799901
153.2 -42.110001 -4.9000092
153.18999 -42.069992 -4.8899989
153.2 -42.080002 -4.9000092
153.24001 -42.189987 -4.759995
153.24001 -42.169998 -4.8600011
153.2 -42.12999 -4.8499908
153.2 -42.150009 -4.8700099
153.2 -42.12999 -4.8700099
153.21001 -42.139999 -4.8499908
153.24001 -42.169998 -4.8000031
153.21001 -42.12999 -4.8000031
153.21999 -42.110001 -4.759995
153.2 -42.110001 -4.8199921
153.2 -42.110001 -4.8499908
153.2 -42.12001 -4.8700099
153.2 -42.099991 -4.8600011
153.2 -42.12001 -4.8499908
153.2 -42.12001 -4.8199921
153.21001 -42.12001 -4.8300018
153.18999 -42.099991 -4.8300018
153.21001 -42.020004 -4.8300018
153.21001 -42.039993 -4.8499908
153.2 -42.050003 -4.8700099
153.18999 -42.009995 -4.8700099
153.21999 -42.12001 -4.780014
153.2 -42.110001 -4.8000031
153.21001 -42.12001 -4.8000031
153.2 -42.099991 -4.8000031
153.21001 -42.069992 -4.7899928
153.21001 -42.080002 -4.759995
153.23 -42.069992 -4.7700038
153.23 -42.050003 -4.780014
153.21999 -42.050003 -4.8100128
153.23 -42.050003 -4.8100128
153.23 -42.039993 -4.8100128
153.21001 -42.030014 -4.8000031
153.24001 -42.009995 -4.8000031
153.21001 -42.050003 -4.759995
153.21001 -42.020004 -4.759995
153.21001 -42.009995 -4.780014
153.36 -42.240005 -4.8799901
153.34999 -42.219986 -4.8899989
153.28999 -42.210007 -4.8799901
153.27 -42.210007 -4.9000092
153.28001 -42.210007 -4.9000092
153.25002 -42.189987 -4.9000092
153.27 -42.189987 -4.9000092
153.3 -42.210007 -4.8799901
153.28999 -42.210007 -4.9000092
153.31999 -42.219986 -4.8899989
153.33 -42.229996 -4.8799901
153.34001 -42.229996 -4.8899989
153.27 -42.180008 -4.8799901
153.25002 -42.169998 -4.8799901
153.34999 -42.240005 -4.7700038
153.31001 -42.219986 -4.8199921
153.25002 -42.189987 -4.8700099
153.28001 -42.199997 -4.8700099
153.3 -42.210007 -4.8499908
153.28999 -42.199997 -4.8499908
153.28001 -42.199997 -4.8199921
153.28001 -42.199997 -4.8400121
153.28999 -42.210007 -4.8199921
153.3 -42.210007 -4.8199921
153.37001 -42.229996 -4.8300018
153.31999 -42.219986 -4.8600011
153.33 -42.219986 -4.8600011
153.37001 -42.249985 -4.8499908
153.36 -42.249985 -4.8700099
153.36 -42.229996 -4.8600011
153.36 -42.219986 -4.8700099
153.34001 -42.210007 -4.8700099
153.31999 -42.219986 -4.8300018
153.33 -42.229996 -4.8300018
153.37001 -42.219986 -4.8400121
153.34999 -42.210007 -4.8400121
153.36 -42.210007 -4.8400121
153.25999 -42.180008 -4.8199921
153.25999 -42.180008 -4.8499908
153.27 -42.180008 -4.8499908
153.25002 -42.139999 -4.8499908
153.25999 -42.150009 -4.8600011
153.27 -42.180008 -4.8199921
153.25999 -42.139999 -4.8199921
153.25999 -42.150009 -4.8400121
153.31001 -42.240005 -4.759995
153.28999 -42.219986 -4.7899928
153.31001 -42.219986 -4.8000031
153.3 -42.219986 -4.7899928
153.28999 -42.219986 -4.759995
153.3 -42.219986 -4.759995
153.25999 -42.210007 -4.780014
153.27 -42.210007 -4.780014
153.25002 -42.199997 -4.780014
153.36 -42.249985 -4.7700038
153.31999 -42.229996 -4.8000031
153.33 -42.229996 -4.8000031
153.34001 -42.219986 -4.8100128
153.37001 -42.240005 -4.7899928
153.36 -42.219986 -4.8100128
153.37001 -42.229996 -4.8100128
153.31999 -42.229996 -4.7700038
153.33 -42.229996 -4.7700038
153.28999 -42.150009 -4.759995
153.37001 -42.169998 -4.8100128
153.42 -42.249985 -4.7700038
153.42 -42.249985 -4.8199921
153.37999 -42.240005 -4.8499908
153.39 -42.249985 -4.8600011
153.40001 -42.249985 -4.8600011
153.42 -42.249985 -4.8499908
153.40001 -42.240005 -4.8199921
153.39 -42.249985 -4.8400121
153.39 -42.229996 -4.8300018
153.40999 -42.240005 -4.8400121
153.43001 -42.249985 -4.8400121
153.49001 -42.249985 -4.8600011
153.37999 -42.240005 -4.759995
153.37999 -42.249985 -4.7899928
153.40001 -42.229996 -4.7899928
153.42 -42.249985 -4.7899928
153.40999 -42.240005 -4.8100128
153.43001 -42.249985 -4.8100128
153.40001 -42.249985 -4.759995
153.37999 -42.240005 -4.7700038
153.40001 -42.249985 -4.7700038
153.28001 -42.110001 -4.8100128
153.37001 -42.259995 -4.6500092
153.37001 -42.259995 -4.6800079
153.46999 -42.259995 -4.6399989
153.43001 -42.259995 -4.7299962
153.40001 -42.259995 -4.740005
153.42 -42.270004 -4.7499852
153.42 -42.259995 -4.740005
153.48 -42.259995 -4.7100072
153.45 -42.270004 -4.7299962
153.43999 -42.270004 -4.740005
153.45 -42.270004 -4.7499852
153.46001 -42.270004 -4.740005
153.43999 -42.259995 -4.719986
153.48 -42.270004 -4.7299962
153.49001 -42.270004 -4.740005
153.46999 -42.259995 -4.719986
153.49001 -42.259995 -4.719986
153.46001 -42.259995 -4.7100072
153.42 -42.289993 -4.6299901
153.37999 -42.259995 -4.6699982
153.40999 -42.259995 -4.6599879
153.37999 -42.270004 -4.6399989
153.39 -42.270004 -4.6399989
153.42 -42.270004 -4.6500092
153.46001 -42.259995 -4.6500092
153.45 -42.259995 -4.6599879
153.46001 -42.259995 -4.6800079
153.37001 -42.259995 -4.6200099
153.48 -42.259995 -4.509995
153.42 -42.270004 -4.5699921
153.42 -42.289993 -4.5999908
153.40999 -42.289993 -4.6100011
153.39 -42.280014 -4.5999908
153.40001 -42.280014 -4.6200099
153.37999 -42.259995 -4.6200099
153.40001 -42.280014 -4.5999908
153.37999 -42.259995 -4.5699921
153.40001 -42.270004 -4.5800018
153.37999 -42.259995 -4.5900121
153.39 -42.259995 -4.5699921
153.40999 -42.270004 -4.5800018
153.40999 -42.280014 -4.5900121
153.43001 -42.280014 -4.5800018
153.43999 -42.289993 -4.5900121
153.45 -42.280014 -4.6100011
153.43999 -42.280014 -4.6200099
153.48 -42.259995 -4.5999908
153.46999 -42.270004 -4.6100011
153.43999 -42.280014 -4.5699921
153.45 -42.280014 -4.5900121
153.46999 -42.259995 -4.5800018
153.42 -42.270004 -4.5200038
153.40001 -42.270004 -4.5600128
153.42 -42.270004 -4.5399928
153.43001 -42.270004 -4.5600128
153.40999 -42.259995 -4.5500031
153.40001 -42.259995 -4.509995
153.40001 -42.259995 -4.530014
153.40999 -42.259995 -4.530014
153.46999 -42.259995 -4.5200038
153.46001 -42.270004 -4.5399928
153.45 -42.270004 -4.5500031
153.46001 -42.270004 -4.5600128
153.48 -42.259995 -4.5600128
153.43999 -42.270004 -4.509995
153.45 -42.270004 -4.5200038
153.43999 -42.270004 -4.530014
153.48 -42.259995 -4.530014
153.49001 -42.259995 -4.5200038
153.24001 -42.189987 -4.6500092
153.24001 -42.189987 -4.6800079
153.24001 -42.189987 -4.6999969
153.24001 -42.189987 -4.7299962
153.24001 -42.199997 -4.7299962
153.21999 -42.12999 -4.6899872
153.18999 -42.150009 -4.6399989
153.21001 -42.139999 -4.6800079
153.2 -42.139999 -4.6399989
153.21001 -42.150009 -4.6500092
153.2 -42.110001 -4.6299901
153.21001 -42.110001 -4.6899872
153.21999 -42.110001 -4.719986
153.23 -42.099991 -4.740005
153.21001 -42.080002 -4.7299962
153.21999 -42.080002 -4.7299962
153.21999 -42.069992 -4.740005
153.21001 -42.090012 -4.6999969
153.21001 -42.069992 -4.7100072
153.21001 -42.050003 -4.6999969
153.21001 -42.039993 -4.719986
153.21001 -42.039993 -4.740005
153.21001 -42.039993 -4.7299962
153.21001 -42.009995 -4.740005
153.21001 -42.009995 -4.6899872
153.18999 -42.080002 -4.6299901
153.2 -42.069992 -4.6599879
153.21001 -42.069992 -4.6800079
153.2 -42.069992 -4.6699982
153.21999 -42.080002 -4.6800079
153.2 -42.080002 -4.6299901
153.21001 -42.080002 -4.6500092
153.2 -42.050003 -4.6299901
153.21001 -42.030014 -4.6699982
153.21001 -42.009995 -4.6599879
153.21001 -42.009995 -4.6699982
153.2 -42.039993 -4.6299901
153.2 -42.039993 -4.6500092
153.24001 -42.189987 -4.5399928
153.24001 -42.189987 -4.5699921
153.23 -42.189987 -4.5999908
153.24001 -42.189987 -4.5999908
153.21001 -42.169998 -4.5900121
153.21001 -42.169998 -4.6200099
153.2 -42.139999 -4.6100011
153.21001 -42.139999 -4.6200099
153.18999 -42.12999 -4.5699921
153.21001 -42.150009 -4.5900121
153.2 -42.12999 -4.5900121
153.2 -42.139999 -4.5900121
153.2 -42.12999 -4.5699921
153.18001 -42.12999 -4.5500031
153.21001 -42.159988 -4.509995
153.21001 -42.169998 -4.5399928
153.21001 -42.159988 -4.5600128
153.2 -42.150009 -4.5600128
153.21001 -42.150009 -4.5600128
153.2 -42.159988 -4.530014
153.21999 -42.110001 -4.530014
153.18999 -42.099991 -4.5699921
153.18999 -42.090012 -4.5999908
153.21001 -42.090012 -4.6200099
153.18999 -42.110001 -4.5800018
153.2 -42.069992 -4.5699921
153.18999 -42.080002 -4.5900121
153.2 -42.039993 -4.5900121
153.2 -42.039993 -4.5999908
153.2 -42.060013 -4.6100011
153.2 -42.039993 -4.6100011
153.2 -42.020004 -4.5999908
153.2 -42.020004 -4.5699921
153.2 -42.030014 -4.5800018
153.21001 -42.030014 -4.5800018
153.21001 -42.020004 -4.5699921
153.21001 -42.030014 -4.5699921
153.21001 -42.009995 -4.5699921
153.21999 -42.099991 -4.530014
153.21001 -42.12001 -4.5500031
153.21001 -42.099991 -4.5600128
153.2 -42.069992 -4.5500031
153.2 -42.069992 -4.5600128
153.21999 -42.090012 -4.5600128
153.21001 -42.099991 -4.509995
153.21001 -42.099991 -4.530014
153.21999 -42.039993 -4.5200038
153.21001 -42.060013 -4.5399928
153.21001 -42.039993 -4.5500031
153.21001 -42.039993 -4.5600128
153.2 -42.009995 -4.5399928
153.2 -42.020004 -4.5500031
153.2 -42.009995 -4.5600128
153.21001 -42.009995 -4.5600128
153.21001 -42.009995 -4.5399928
153.21999 -42.020004 -4.5399928
153.21999 -42.009995 -4.5399928
153.21001 -42.009995 -4.509995
153.21999 -42.020004 -4.509995
153.21999 -42.020004 -4.530014
153.21999 -42.009995 -4.5200038
153.37001 -42.249985 -4.6299901
153.36 -42.240005 -4.6399989
153.28999 -42.219986 -4.7100072
153.27 -42.219986 -4.7499852
153.28999 -42.219986 -4.7299962
153.3 -42.219986 -4.740005
153.25002 -42.210007 -4.719986
153.25002 -42.210007 -4.7499852
153.25999 -42.210007 -4.7499852
153.28001 -42.210007 -4.7299962
153.3 -42.219986 -4.7100072
153.27 -42.210007 -4.6999969
153.28001 -42.210007 -4.6999969
153.25002 -42.199997 -4.6999969
153.34999 -42.240005 -4.6899872
153.34001 -42.240005 -4.719986
153.33 -42.240005 -4.740005
153.34001 -42.240005 -4.7499852
153.31999 -42.229996 -4.740005
153.31999 -42.229996 -4.719986
153.33 -42.229996 -4.719986
153.34999 -42.240005 -4.719986
153.34999 -42.240005 -4.740005
153.36 -42.240005 -4.740005
153.37001 -42.249985 -4.740005
153.34001 -42.240005 -4.6899872
153.31999 -42.229996 -4.6899872
153.33 -42.229996 -4.6899872
153.36 -42.249985 -4.6899872
153.36 -42.249985 -4.7100072
153.37001 -42.249985 -4.7100072
153.3 -42.229996 -4.6299901
153.28001 -42.219986 -4.6699982
153.28999 -42.219986 -4.6800079
153.3 -42.219986 -4.6800079
153.27 -42.210007 -4.6699982
153.25002 -42.189987 -4.6699982
153.25002 -42.199997 -4.6699982
153.28999 -42.219986 -4.6500092
153.3 -42.219986 -4.6500092
153.27 -42.210007 -4.6500092
153.28001 -42.210007 -4.6500092
153.25002 -42.189987 -4.6500092
153.25999 -42.199997 -4.6500092
153.34999 -42.229996 -4.6399989
153.33 -42.219986 -4.6599879
153.33 -42.229996 -4.6599879
153.37001 -42.240005 -4.6599879
153.36 -42.240005 -4.6699982
153.34999 -42.229996 -4.6699982
153.33 -42.240005 -4.6299901
153.31999 -42.229996 -4.6299901
153.49001 -42.249985 -4.6299901
153.42 -42.249985 -4.6899872
153.40001 -42.249985 -4.7299962
153.39 -42.240005 -4.740005
153.40999 -42.249985 -4.719986
153.40001 -42.249985 -4.6999969
153.39 -42.249985 -4.7100072
153.40999 -42.240005 -4.6999969
153.42 -42.249985 -4.7100072
153.43001 -42.249985 -4.7100072
153.46999 -42.249985 -4.6999969
153.45 -42.249985 -4.6999969
153.49001 -42.249985 -4.6899872
153.43001 -42.249985 -4.6800079
153.40001 -42.249985 -4.6699982
153.46999 -42.249985 -4.6699982
153.49001 -42.249985 -4.6599879
153.34999 -42.229996 -4.509995
153.28999 -42.210007 -4.5699921
153.31001 -42.219986 -4.5999908
153.28999 -42.219986 -4.6200099
153.28001 -42.210007 -4.5999908
153.28001 -42.210007 -4.6200099
153.25002 -42.189987 -4.6200099
153.25999 -42.199997 -4.6200099
153.27 -42.199997 -4.6200099
153.27 -42.199997 -4.5999908
153.3 -42.210007 -4.5999908
153.25002 -42.199997 -4.5699921
153.25002 -42.199997 -4.5900121
153.25999 -42.199997 -4.5900121
153.27 -42.199997 -4.5699921
153.3 -42.210007 -4.5800018
153.31001 -42.210007 -4.5800018
153.34999 -42.240005 -4.5800018
153.31999 -42.229996 -4.5999908
153.33 -42.240005 -4.6100011
153.36 -42.240005 -4.6100011
153.37001 -42.240005 -4.6100011
153.34999 -42.229996 -4.6100011
153.34001 -42.240005 -4.5800018
153.33 -42.229996 -4.5800018
153.36 -42.249985 -4.5800018
153.37001 -42.249985 -4.5800018
153.28999 -42.210007 -4.5200038
153.25002 -42.189987 -4.5399928
153.25999 -42.210007 -4.5600128
153.25999 -42.199997 -4.5399928
153.27 -42.199997 -4.5399928
153.31001 -42.210007 -4.5500031
153.28999 -42.199997 -4.5500031
153.3 -42.199997 -4.5500031
153.25999 -42.189987 -4.5200038
153.27 -42.189987 -4.5200038
153.28001 -42.199997 -4.5200038
153.3 -42.199997 -4.530014
153.36 -42.240005 -4.530014
153.33 -42.229996 -4.5600128
153.34001 -42.229996 -4.5600128
153.37001 -42.249985 -4.5500031
153.36 -42.240005 -4.5600128
153.34999 -42.229996 -4.5600128
153.34001 -42.219986 -4.509995
153.33 -42.219986 -4.530014
153.34001 -42.219986 -4.530014
153.37001 -42.249985 -4.530014
153.34999 -42.229996 -4.530014
153.31999 -42.199997 -4.509995
153.31999 -42.199997 -4.530014
153.25002 -42.180008 -4.5200038
153.49001 -42.249985 -4.5500031
153.37999 -42.249985 -4.5999908
153.49001 -42.249985 -4.5800018
153.37999 -42.249985 -4.5200038
153.39 -42.249985 -4.5399928
153.37999 -42.249985 -4.5500031
153.39 -42.249985 -4.5200038
153.61 -42.229996 -4.6299901
153.50002 -42.259995 -4.759995
153.50002 -42.259995 -4.780014
153.86 -42.409988 -4.8899989
153.87001 -42.430008 -4.9000092
153.86 -42.360001 -4.9000092
153.87001 -42.289993 -4.8899989
153.86 -42.449997 -4.8300018
153.87001 -42.499985 -4.8600011
153.87001 -42.469986 -4.8700099
153.86 -42.460007 -4.8499908
153.87001 -42.430008 -4.8199921
153.84999 -42.419998 -4.8499908
153.87001 -42.389999 -4.8199921
153.86 -42.400009 -4.8400121
153.90001 -42.439987 -4.759995
153.90001 -42.449997 -4.780014
153.87999 -42.490005 -4.7899928
153.89 -42.389999 -4.780014
153.87999 -42.400009 -4.8000031
153.87001 -42.349991 -4.759995
153.87001 -42.349991 -4.8199921
153.86 -42.37001 -4.8700099
153.86 -42.360001 -4.8400121
153.87001 -42.289993 -4.8400121
153.87001 -42.289993 -4.8600011
153.86 -42.330002 -4.759995
153.87001 -42.360001 -4.7899928
153.87001 -42.300003 -4.8000031
153.86 -42.280014 -4.8000031
153.90001 -42.37001 -4.759995
153.87999 -42.360001 -4.780014
153.87999 -42.37001 -4.8000031
153.56999 -42.219986 -4.9000092
153.62001 -42.199997 -4.8799901
153.53999 -42.219986 -4.8799901
