# .PCD v0.7 - Point Cloud Data file format
VERSION 0.7
FIELDS x y z
SIZE 4 4 4
TYPE F F F
COUNT 1 1 1
WIDTH 1437
HEIGHT 1
VIEWPOINT 0 0 0 1 0 0 0
POINTS 1437
DATA ascii
0.6164279 0.17790222 -0.76705116
-0.12980986 0.53315735 0.835998
0.18559217 0.01211071 -0.98255223
0.032013416 -0.33811903 -0.59164047
-0.17352867 -0.11877298 -0.97764039
0.42398977 -0.79476833 0.43425336
-0.60961485 0.30371857 -0.73220539
-0.22730589 -0.81946898 0.52612031
0.43558598 0.51145792 -0.84533358
-0.52946758 -0.58237076 0.61685359
0.81875849 0.18962479 -0.54191971
-0.52513456 0.097588062 0.84540534
0.51633596 -0.39649105 -0.75907314
-0.75942087 -0.98308086 0.044812679
-0.14299297 -0.80517864 -0.57553482
-0.084997177 0.39016438 0.91681367
-0.61958599 -0.072886467 -0.78153741
0.42217827 -0.95770502 nan
-0.66452694 0.2486496 0.923522
-0.24053717 -0.54611874 0.80243146
0.31390715 0.0631814 -0.94734913
-0.77342415 -0.50556135 0.38239086
0.49876785 -0.26196623 -0.8261987
0.64910507 -0.03069973 -0.84433699
-0.53213596 0.15892506 -0.83160937
0.63052893 -0.4345479 0.6431185
0.6752615 0.23403788 -0.69946277
0.80603123 -0.30781937 0.5055303
0.27885056 0.66303825 0.88700199
0.19385386 -0.94679737 0.25689581
0.267416 0.12096739 -0.95595795
-0.5246191 -0.69028902 0.49827293
-0.54355907 -0.27596903 -0.79270715
0.23323345 -0.78409624 -0.82208776
0.5471406 -0.72091436 -0.42534649
0.40448809 0.041579247 0.91359758
-0.22214651 0.14252186 -0.96454054
0.6906848 -0.25284624 0.67751259
-0.70181465 0.15854883 -0.093920708
-0.071285725 -0.27599907 0.95851076
0.58134079 0.16275215 -0.79721677
0.53003216 0.27352142 0.80265307
0.44160318 -0.80692959 -0.39223871
-0.83947659 0.63545704 0.24627304
-0.57206011 0.75642443 -0.31712675
-0.27834558 0.73765087 0.61513811
0.21286535 -0.55431461 -0.80462641
0.97088432 -0.57123041 nan
0.62359762 -0.4819746 0.70785522
-0.97191381 -0.44039536 nan
0.48570871 -0.82939196 -0.27603635
0.25028944 0.23286247 0.93975013
0.46879339 0.40883827 -0.78299683
0.13894176 0.39750767 0.1328392
0.72028255 0.5602603 -0.40902504
0.66287136 0.99380398 nan
-0.99813652 -0.14405823 nan
0.15432787 -0.36267948 0.91904652
0.10221529 -0.41773224 0.39374495
-0.17613029 0.31991863 0.93092972
0.60661077 -0.73044491 -0.31380495
-0.70919657 0.035380363 0.70412248
-0.10684729 0.80882883 -0.57825565
0.74323559 0.9212389 0.36843348
-0.7710557 0.09184742 -0.63010883
0.61872339 -0.53819323 0.57230186
0.56064081 -0.97243834 nan
-0.39925098 0.95814896 nan
-0.83959866 0.32103157 -0.48159075
-0.17672729 -0.68516397 0.70662421
0.52027273 -0.32078505 -0.79146272
-0.53083611 0.15759325 0.83269286
-0.21856976 -0.94856834 -0.22900951
0.5513382 -0.39470005 -0.62864971
-0.84205103 0.87485504 nan
0.66215372 -0.80667067 nan
0.76800776 -0.52901745 -0.36097729
-0.063435078 -0.31075287 0.94837159
-0.1605835 -0.83449078 -0.21890545
0.4581399 0.62731647 0.62974745
0.34173536 -0.51429844 -0.78658378
0.22806549 -0.70011568 0.67662704
0.64610291 0.54909706 -0.53013527
0.81829357 0.46937609 -0.13606691
-0.6614337 0.14859104 -0.73513687
-0.66690302 -0.50384045 0.5489856
-0.069978714 0.38452864 -0.92045683
0.047498226 -0.46467876 0.88420445
-0.2441206 -0.7945528 0.41017628
0.41803312 0.39877701 0.81622618
-0.82181597 -0.11098385 -0.55883908
0.33534193 0.86743116 0.36757168
-0.27156734 -0.49914837 -0.82286215
0.64852571 0.18657255 0.12816811
0.99026155 -0.32772589 nan
0.3562336 0.29014587 0.88820773
0.31837749 0.90533066 -0.281091
-0.89156008 0.78775358 nan
0.76926422 0.44700623 0.93634462
0.1023612 -0.056833744 0.9931224
0.86636591 0.48689032 -0.11112113
-0.0093355179 0.40168715 0.91572934
0.24276972 -0.80388832 -0.54297924
0.81186342 0.66080284 -0.40511131
-0.0099525452 0.54981899 -0.83522451
-0.069768906 0.8574791 0.50976658
0.27825165 -0.56891727 -0.77389222
-0.49399519 0.4648242 0.73478377
-0.44074917 0.49626637 0.13709879
-0.084515572 0.78641272 0.61189222
0.45547628 0.82081509 -0.34467953
-0.10514736 -0.75677013 0.64516896
-0.40992069 0.34185886 -0.8456344
0.17957449 -0.30755901 0.28502512
-0.9540596 0.1793313 -0.24002196
0.2756896 -0.55237246 0.78668922
0.42210102 -0.52819824 -0.73677498
0.25949097 -0.91709614 0.30265343
-0.93330956 0.24953842 -0.36727667
0.99692154 -0.89298248 nan
-0.089025021 0.42800426 -0.8993814
0.6130228 0.37579966 0.69496596
-0.012744904 -0.89071083 -0.45439169
0.51289845 -0.097260475 -0.10429811
0.96837473 0.72355509 nan
-0.20944548 0.2116046 0.95464975
0.3136344 0.13241386 -0.94026595
0.39117908 0.0060753822 0.92029452
0.41743898 -0.56288052 0.18540668
0.69312906 0.88474703 nan
0.60750771 0.16493082 -0.77700204
-0.855762 -0.30958796 0.41451985
-0.76837873 -0.60622358 -0.20515135
-0.67686462 0.22854328 0.50079441
-0.76588964 0.65654755 nan
-0.88618279 -0.39008999 0.25001976
0.64380312 0.22310638 -0.73194337
0.12280846 0.54654264 0.82837743
0.11880875 -0.90881681 -0.72990227
-0.09063673 -0.69721222 0.71111184
-0.4162674 0.041777134 -0.90828192
-0.30603313 -0.41019201 0.85911947
0.45921659 -0.86891365 -0.18468685
-0.22478485 -0.84765434 0.015833378
0.38272285 -0.68272352 -0.62242413
-0.83992863 0.073134899 0.53774637
0.54889774 0.55384827 -0.62606978
-0.60372972 0.77744102 0.17634036
-0.94535732 0.63038111 -0.56601095
0.16845989 0.24029112 0.95597148
0.077792168 0.39156628 -0.91685563
0.36310005 0.62433481 0.69163889
0.51037502 -0.54571676 -0.66461307
-0.10556698 0.41973877 0.7570715
-0.52183437 0.4615159 -0.71742034
0.45103836 -0.93202639 nan
0.9207325 -0.41787481 nan
0.84318876 0.073078156 0.5326277
-0.40204144 -0.77408791 -0.60964537
0.75803041 -0.70095301 nan
-0.060747147 -0.68812132 -0.72304827
0.69531775 0.71669388 0.053694844
0.36652136 -0.67430115 -0.64107728
0.15068293 0.53498125 -0.43401003
0.22847509 0.92654753 -0.29884577
-0.070909977 0.85281038 0.51738399
-0.56307697 -0.61662626 -0.55019665
0.7472434 -0.1433382 0.6489079
0.14044523 0.22540903 0.3181777
0.59148359 -0.70661736 0.38838011
-0.76108932 0.17360878 -0.62498242
0.13657188 -0.68801117 0.71273327
-0.22843218 -0.63751602 -0.73579353
0.70234394 0.52959824 0.66153097
0.64159679 -0.15852308 -0.7504825
-0.64315128 -0.64170933 0.41781044
0.20799828 0.68254757 -0.70061797
-0.49102592 0.74297953 0.45483509
0.24853802 -0.26255083 -0.33047295
0.17762804 0.59025955 0.78742743
-0.89354992 -0.43899822 -0.094069652
-0.66249704 0.96311188 nan
-0.29855299 -0.43708801 -0.84842217
-0.71870995 0.29293108 0.85629511
0.52020073 0.46653986 -0.71535426
0.99286699 -0.16781044 nan
0.23810768 0.35535097 -0.90389735
0.5345335 0.76770592 0.35341412
-0.98311806 -0.82386971 0.60918283
0.37373114 0.53442144 0.75810206
0.81718111 -0.94372129 nan
0.043395519 -0.43983936 0.89702743
-0.69518328 -0.21915531 -0.68461019
-0.77031183 -0.51755476 0.37110472
0.33613825 -0.95655298 nan
-0.29139233 -0.7007494 0.65118414
0.7448945 -0.72847986 nan
0.58054066 -0.96217442 nan
0.12781525 -0.89925861 -0.49563456
-0.87931776 0.93293095 nan
-0.2575264 -0.52396679 -0.81187373
-0.53253508 0.51017952 0.67536896
0.49291515 0.64359522 -0.58550817
-0.88063717 0.86664629 -0.82198334
-0.063456059 -0.077074528 -0.99500394
-0.77858782 -0.50329494 0.37482694
-0.7722578 -0.99774265 nan
0.72639322 0.71018744 nan
-0.62663794 -0.93746853 -0.24636507
-0.91803026 0.36178207 0.16227801
0.49852943 0.35348988 -0.79152596
0.94232273 -0.46364498 nan
0.48130512 0.043064117 -0.8754946
-0.95927954 -0.39801264 0.97599554
0.78319407 -0.92197943 nan
0.44346046 -0.70662594 0.55138248
-0.4290638 -0.91294432 nan
0.41273689 0.43758249 0.7988553
0.26507282 0.34928083 0.36050797
-0.513515 -0.15401411 0.84414577
-0.41174936 0.48874235 -0.76915109
0.57237911 0.29843807 0.7637518
-0.13789558 -0.36508894 -0.92070347
0.052073002 0.94407463 -0.0033068657
0.55060244 -0.70243549 -0.45102254
0.93901634 0.086957455 0.33269608
-0.22112989 0.98208046 nan
-0.87232161 -0.61914253 nan
-0.041924 -0.089127541 0.45887852
0.40153646 -0.79575348 0.4533706
0.02981472 -0.51140738 -0.85882103
-0.38301659 0.46739721 0.79676729
-0.24633455 -0.033735275 -0.96859753
0.82790565 -0.75984955 -0.18774939
0.41615629 -0.27110672 -0.86793727
0.3846302 0.71459436 0.58430684
-0.4090023 0.019541264 -0.91232407
0.76666784 0.53507233 0.35484931
0.016234398 -0.68272972 -0.16736269
0.95525074 -0.59577179 nan
-0.38849258 -0.062668324 -0.91931838
0.5319066 0.99236488 nan
-0.10459232 0.44277906 -0.89050949
-0.5487566 0.29694462 -0.35297394
-0.51894188 -0.21446276 -0.82746905
-0.73599052 -0.051544189 0.67502677
-0.46079731 -0.7697258 -0.44180092
0.77636147 0.77935314 nan
-0.95747471 -0.80748224 0.50824642
-0.57284451 -0.092887878 0.8143838
0.099244595 -0.55330324 -0.82704657
0.67377996 0.63431692 0.3790285
-0.53706884 -0.0089492798 -0.8434909
0.46695423 0.41818237 -0.60472107
0.078461647 0.35551405 -0.93137187
-0.072814465 -0.92917299 0.36240256
0.25092173 0.3699646 -0.89451915
0.52207041 0.54786634 0.65367037
0.016990662 0.0031290054 0.33340359
-0.71899939 -0.048415184 0.6933223
-0.12739372 0.51127481 -0.8499229
0.72794628 0.6519599 0.21223214
-0.44619989 -0.079535961 -0.89139199
-0.83979368 0.9809556 -0.17242384
-0.74054909 0.42765236 -0.5183633
0.5013566 -0.10623169 0.85869455
-0.10941601 0.49240732 -0.86346
0.36072254 0.30876637 0.880081
-0.11231375 0.43918467 0.66428041
-0.18512821 -0.48998833 0.85184449
0.91520214 0.18483639 -0.35810685
0.032082081 -0.53693104 0.84301591
0.20182753 0.035211086 -0.97878796
-0.20352745 -0.51717186 -0.013204098
-0.3309207 -0.0058970451 -0.94364017
0.71474218 0.3210392 0.6213513
-0.45209646 0.63520622 -0.62619632
-0.51875448 0.52885914 0.67171556
0.46278286 0.74069691 0.95651197
0.96413946 0.63446522 nan
0.84709597 -0.54345322 nan
0.99518776 -0.84413767 nan
-0.65576696 -0.56562757 -0.50003511
-0.17985725 -0.84089518 0.9443841
0.73534489 -0.65605879 -0.16986696
0.97646666 0.19841385 0.084526837
-0.45423126 -0.98832226 nan
-0.0051131248 -0.97140312 0.23738116
0.99847412 -0.33603382 -0.97729969
-0.2867837 -0.014994621 0.95787799
0.57060385 0.348423 -0.74364823
-0.5337491 -0.90053701 nan
0.81120586 0.2069478 -0.54691648
0.05597496 -0.22465467 0.84141302
0.90307093 -0.76810789 nan
-0.16339874 0.058933258 0.98479831
0.57612514 -0.72902632 -0.36959505
-0.120924 -0.26477003 0.95669967
0.21535826 0.61442137 -0.92082882
-0.80817509 0.81283522 nan
0.6249404 0.20350266 -0.75368178
0.80772209 -0.34646273 0.47702053
-0.79802322 0.47168827 -0.37505883
0.67623758 0.91519356 0.45669365
-0.75315857 -0.73638344 nan
-0.077054977 0.34630489 0.93495214
0.074822426 0.12989283 -0.98870093
0.40227985 -0.14983225 0.90317285
0.97130632 -0.69464874 -0.91794014
0.80790758 -0.63571548 nan
-0.34181499 0.078881264 -0.9364509
-0.756639 -0.60658503 0.24403287
0.29423952 -0.14221764 -0.94509113
0.47258615 -0.51393557 0.67061758
-0.90247345 -0.31043243 -0.29861915
-0.52165985 0.7510643 0.40468928
0.89154434 -0.049971581 -0.45016834
-0.57269812 -0.1932621 0.79665965
0.40672255 0.67414379 -0.92964554
0.32966757 -0.97955132 nan
-0.85482311 0.45956039 -0.24100146
-0.57727146 0.99534464 nan
-0.56913328 0.7280798 -0.38208264
0.077404499 0.2387743 0.092364788
-0.2644105 0.31765604 -0.91059417
-0.66427422 -0.87099552 nan
0.61189556 -0.80649185 nan
-0.39840889 0.097960472 0.91196167
-0.13587427 0.69911766 -0.21247196
-0.65753412 -0.54981804 0.51512039
0.67907238 -0.70750523 -0.19569634
0.87748432 0.48581076 nan
-0.30078268 -0.44837189 -0.84171993
-0.44383478 0.028884888 0.5720768
0.70134258 0.48844528 -0.51917219
-0.005194664 -0.30331278 0.95287687
-0.080687523 0.72288561 -0.68624043
-0.2259078 0.15808678 0.96123576
0.8152504 -0.4903183 0.47574282
0.15097618 0.63868666 0.7545101
-0.91236115 -0.65551567 nan
0.24027777 -0.81440067 0.52822167
-0.79138994 0.93939543 nan
0.97312737 0.55107641 0.38957787
-0.34780025 -0.15642881 -0.92442685
-0.73293781 0.1380105 0.66614956
-0.45721149 0.8186903 -0.34742454
-0.3058238 -0.42832661 0.85029882
-0.6092329 0.39551878 0.060118675
-0.61442757 0.092206001 0.78356671
-0.020568848 0.10845804 -0.9938882
-0.1337018 0.13751841 0.98143393
0.92370844 -0.62401962 nan
0.61326122 -0.92531538 0.014667034
-0.29909992 0.41916895 -0.85722619
0.2549448 0.8864994 0.38616309
-0.37222052 -0.80565977 -0.46082991
-0.14037323 0.1788559 0.97381002
-0.41608191 -0.48817301 0.022427082
0.85098028 -0.35016251 0.39143166
-0.43478441 -0.33032942 -0.83776188
-0.65598631 -0.86311102 nan
-0.93956232 -0.26046753 -0.22221461
-0.80299234 0.44601059 -0.16826105
-0.82356071 0.55446863 -0.11963389
-0.30196285 -0.68604231 0.66193986
-0.52182245 -0.92598248 nan
-0.072781086 0.55286217 0.8300882
-0.91131544 -0.37188053 0.97203159
-0.65637064 0.51461887 0.55167478
0.59981108 0.53797007 -0.5922963
0.37424612 0.77866697 0.50360459
0.12188816 -0.11392689 -0.98598379
0.80109406 0.97286892 -0.46408939
0.36630964 0.6425395 -0.67302322
0.87992477 -0.49680138 nan
-0.29702234 0.61945724 -0.7266708
0.70020628 0.14898825 0.6982218
0.45119619 -0.12335443 0.70345688
0.14923382 -0.80939674 0.56798428
0.18163443 -0.77674866 -0.60305095
-0.88217735 0.73449707 nan
0.31193638 0.74594212 -0.58844382
-0.29347134 -0.34443426 -0.73943901
0.30633974 0.1935358 -0.93204069
-0.36519289 -0.91499329 0.17152664
0.31542444 -0.47911978 -0.81911641
-0.11389923 -0.71170664 0.69318151
-0.94320869 0.25241041 -0.069167137
-0.06328392 -0.24439096 0.96760952
-0.36618948 0.55617332 -0.74604052
0.45581532 -0.21720123 0.86316627
-0.99263 0.33246136 nan
0.48625612 -0.84339619 -0.47693539
0.66789055 0.37985516 -0.6400252
0.64088726 -0.59761238 0.48179144
0.69179153 -0.61317062 -0.38137418
-0.89108372 0.34735775 0.29208288
0.64739084 -0.58474398 0.54089355
0.28219795 0.50026274 0.81859732
0.856318 -0.19692135 -0.47743213
0.38636351 0.14461136 0.91093951
0.85986996 0.63877392 nan
0.075444698 0.79658604 0.39438295
-0.29074478 -0.64724064 -0.70466095
0.85019875 -0.50794554 0.13839586
0.36012936 -0.8173399 -0.44973585
-0.021689415 -0.48326683 0.87520438
0.70572472 0.64620113 -0.1034112
-0.65338755 0.04858923 0.75546265
0.58838034 0.73344183 -0.34039927
-0.84249449 0.93573809 nan
-0.61916733 0.57276201 -0.53719223
-0.52336788 -0.3369689 -0.92697525
0.33295012 -0.53389025 -0.77724224
-0.54061127 0.47756195 0.69258505
0.32597971 0.098162651 -0.94026661
0.55300665 -0.87743425 nan
0.49254608 0.26226187 0.47532511
-0.65725517 -0.24568367 0.7124992
0.83545494 0.52540493 -0.16113578
-0.26737309 0.35218811 0.89692539
-0.76887035 0.37882853 -0.51509935
0.24877691 0.5777421 0.42741776
0.83715773 -0.68881559 nan
-0.41507673 -0.22710419 0.8809852
0.69201708 0.15768528 -0.70444852
-0.75047207 0.35504818 0.55743378
-0.76928949 -0.41752148 -0.17884207
0.69009924 0.060040474 0.72121996
0.14713764 0.78826189 -0.59748954
0.61304712 -0.73029661 0.30139691
-0.71919203 0.87530899 nan
-0.25497103 0.6235528 0.6296258
0.58048391 -0.85104227 nan
0.36225271 0.93267202 nan
0.38008785 0.74108124 -0.55347252
-0.81855059 0.95782995 nan
-0.83150101 0.01860714 0.26901436
0.75342274 -0.20849705 0.62360495
0.96103191 0.91110802 nan
-0.95896864 -0.68391991 nan
0.14181852 0.62350988 -0.76884514
-0.8627615 0.83191776 0.68355036
-0.71562386 -0.37981987 -0.58619052
-0.70340252 0.55408001 0.44521931
0.9009881 0.17190647 -0.39833227
0.29910898 -0.47545862 0.8273288
0.80153227 0.8795929 0.67349911
-0.83621454 -0.18773508 0.51526767
-0.94641304 -0.095133305 -0.30862921
0.99371433 0.011417389 0.11136184
-0.92663383 -0.98767853 nan
0.28043175 -0.1732111 0.8038249
-0.75853634 0.73789692 nan
-0.15514374 0.55754423 0.81552118
0.87971592 0.46836615 -0.082055226
-0.30521727 -0.28836632 0.90757215
-0.8480835 0.97915888 -0.66818619
0.44851398 -0.46676111 0.76221341
0.23280239 0.62042046 -0.7489202
-0.16765213 -0.24265623 0.95551592
-0.5780468 0.71194077 -0.39875084
0.43084288 0.58573866 0.52420616
-0.51556969 0.49060535 -0.70249146
-0.48207951 -0.5041523 0.71654016
-0.43602848 0.53024244 -0.72713286
-0.22372055 -0.60923958 0.76077342
-0.66593266 -0.98225641 0.12865782
-0.82107639 -0.42471218 0.38138318
-0.99162626 -0.35271025 nan
-0.72992945 0.72000742 nan
0.79920626 0.24922943 -0.54694974
0.051821709 -0.75227976 -0.2175312
0.2846241 -0.1318593 -0.94952738
-0.38518333 0.041967869 0.92188525
-0.7099061 0.32675791 -0.62390912
0.47281075 -0.12416744 0.87237173
0.85096407 -0.042758942 0.36643839
0.36888456 -0.54691124 0.75153989
-0.069590092 0.89912701 -0.4321202
-0.77063131 -0.67882919 nan
0.23319435 0.24711227 -0.94050837
-0.55017138 -0.58788204 -0.17759991
0.45820236 -0.94059229 nan
-0.90752935 -0.82179022 nan
-0.14138603 -0.65829992 -0.7393586
-0.76996851 -0.89366579 nan
-0.87583113 -0.48534441 0.97447538
0.73898602 -0.44337654 0.50726414
0.26456928 -0.93425608 -0.2390997
0.029434681 0.14040232 0.98965693
-0.083292007 -0.013324261 -0.99643606
0.50684071 0.28559256 -0.56023502
0.43725061 -0.81527996 -0.3796452
0.66913366 -0.24157858 0.70278013
-0.58208561 0.91624594 nan
-0.79174995 0.83003283 nan
0.73864603 -0.33354759 -0.11055946
-0.16888332 0.84466267 0.50796002
-0.25194502 -0.82718325 -0.50228631
0.074694157 0.85438919 0.51423717
0.2969861 -0.41064978 -0.8620708
-0.17113543 -0.96402788 -0.85402632
0.093434334 0.10171604 -0.99041599
-0.82459164 0.23383665 0.51513982
0.018424034 -0.83791542 -0.54548907
0.74067736 0.30401659 0.59914184
0.60184956 -0.82207203 -0.51126337
-0.72901678 0.93634987 nan
0.9066515 0.18722916 -0.37805858
0.14459991 -0.26331568 0.95381117
0.92587519 -0.1889472 -0.32719123
-0.37387514 0.75699186 0.65571547
-0.62582016 -0.070191383 -0.7768026
0.73040962 0.22856951 0.6436286
0.22679472 0.31975985 -0.91995531
0.057434082 -0.73723316 0.6731928
-0.534266 0.15086842 -0.63551712
0.64114237 0.38470507 0.66403198
-0.61709309 -0.19677305 -0.76189005
-0.87461758 -0.31307602 0.37017229
0.4050765 0.30331087 -0.86250538
-0.82433939 -0.32394028 -0.76033926
0.082312107 -0.13671112 -0.9871853
-0.61573935 -0.18100357 0.7668786
0.78916407 -0.80468655 nan
-0.55487823 -0.45384407 0.69723433
-0.14897108 0.81930161 -0.52403498
0.58143902 -0.95212889 nan
-0.29724026 0.90119886 -0.31541845
-0.89469433 0.96552706 nan
0.36693287 -0.74382591 -0.55864412
0.33000994 -0.99192429 -0.35912037
-0.28708267 0.81130266 -0.50928533
0.76626205 -0.60015869 0.22946024
-0.78362036 -0.93042707 nan
0.57550192 0.89243937 nan
0.30923367 0.6578145 0.75572872
-0.3065052 0.47681093 0.82383609
-0.45510721 0.88880825 -0.053826779
-0.078067303 -0.90895081 0.40952891
0.73983765 0.74123478 nan
0.56701422 -0.67872334 -0.21089411
0.26977396 0.22247553 -0.93687069
0.89441156 -0.76469898 nan
0.58940887 0.15058613 -0.79367566
-0.43468857 -0.40251541 0.80562228
-0.20853424 -0.72177124 0.40878725
0.55772781 0.67807007 0.47870728
-0.37483311 -0.37269878 -0.84887916
-0.74642801 0.51760674 0.41824454
-0.063465118 -0.08861351 -0.99404216
-0.72666454 -0.36997032 0.3881979
0.81822824 0.51883841 -0.24760698
0.3101306 -0.090722561 0.94635534
-0.74132395 -0.94863462 nan
0.47629166 0.57995272 0.6609093
0.84047174 0.74606609 0.80242825
-0.26511669 -0.018632889 0.96403629
-0.60816288 -0.11453056 -0.78550661
-0.45332146 0.98932171 nan
-0.3230648 0.8249073 -0.46385023
-0.60189056 0.23466349 -0.49702263
-0.97672367 -0.1380353 -0.16418619
0.75654984 -0.45911694 0.4656651
-0.20150042 0.66793633 -0.71642065
0.81421852 -0.57147026 0.10232259
-0.94386578 -0.36755276 -0.052631855
-0.6337347 -0.45827532 0.62318861
-0.7939558 0.41763067 -0.44183576
0.018016815 -0.21400309 0.97666681
-0.74189758 0.76408291 nan
0.58842516 0.9929862 0.74545002
-0.019737244 0.87845564 -0.4774161
0.29212904 0.96958447 nan
0.55539131 -0.88296366 nan
0.3676939 0.7900548 0.49052483
0.62001419 -0.60902929 0.6520195
-0.62343597 0.93185377 nan
0.45051908 0.044500351 -0.89165699
-0.25392723 -0.12095118 0.95963103
-0.89936495 -0.62147999 nan
-0.17358303 0.46690035 0.92024469
-0.96753883 0.88453102 nan
0.93826151 0.81845808 nan
0.14263391 -0.29765558 -0.94395798
-0.59311628 -0.86437988 nan
0.44779491 -0.61285353 0.014075756
0.73992395 0.35673094 0.57031184
0.56946707 -0.1430397 -0.80947322
0.72442532 -0.64047813 0.25494263
0.47697449 0.11539602 -0.87130886
0.011541367 -0.14646149 -0.95275021
0.46206093 -0.10196066 -0.88096744
0.79332256 0.34110975 0.50426525
0.99867439 0.17184258 nan
0.1675272 -0.53442526 0.82844687
-0.90791225 -0.80001163 0.35010576
0.030349255 0.018446922 0.99936914
0.49273968 -0.26730585 -0.82810336
-0.57466936 -0.37164021 0.72913551
0.18048906 0.81247711 -0.55435061
-0.35756397 0.92041302 -0.83079195
0.2119031 0.77737331 -0.59227341
-0.10636663 -0.42857456 0.89722347
-0.74565172 0.0090293884 -0.66627473
-0.4170332 -0.89211321 0.17383139
-0.94372034 0.045027733 -0.99407387
-0.15039778 0.38613796 0.91009778
0.0046005249 0.021445274 -0.99975944
0.55366516 -0.52982473 0.6424489
-0.88646698 -0.24634647 -0.39177763
-0.17971849 -0.85611773 -0.22789955
0.31302118 0.87657642 -0.36555639
-0.80256891 -0.058618546 0.59367245
-0.94293451 0.0099081993 -0.33283085
-0.41618252 -0.022521496 0.90900213
-0.82088327 -0.20427942 0.75485229
-0.92724991 -0.63285398 nan
0.009200573 -0.91822004 -0.39596382
0.9501133 -0.88291264 nan
0.13805962 0.99514103 nan
0.12301397 -0.012338161 -0.61872101
0.1276145 0.0091071129 -0.99178201
-0.065055847 -0.40220976 0.91323328
-0.87735987 -0.31140184 -0.3650597
-0.58192825 0.26652288 0.76832616
-0.5393014 -0.26890707 -0.85690069
0.65813017 -0.32752562 0.67793185
0.20016527 0.66803837 -0.71669984
-0.74370813 0.17764378 0.6444695
-0.15284491 -0.94798708 -0.27921128
0.93249607 0.91990566 0.41915894
0.94169664 0.0016856194 -0.33645895
-0.63072777 0.058784485 0.77377445
0.13974524 0.36441374 -0.92069209
0.18179846 0.12740707 0.97504705
-0.25430727 0.30941296 0.13651466
-0.31936264 -0.092796803 0.9430781
-0.7408452 -0.63076448 -0.23083448
-0.67472506 -0.47432232 0.56547719
0.82993412 -0.94363165 nan
0.66877747 -0.51193571 0.72884274
0.86894274 0.15610313 -0.46964911
-0.014864922 -0.95341349 0.30130011
0.0032582283 -0.962852 -0.27001002
-0.020916939 0.92316389 0.38383713
-0.54369307 0.92077971 0.92484951
0.82557964 0.97956419 nan
-0.93540525 -0.81000662 nan
-0.83863735 -0.8079977 nan
0.93568611 -0.52922392 nan
-0.67148304 0.61632347 -0.62202072
0.58767176 -0.014441013 -0.80897051
0.7032547 0.11334991 0.70184374
0.81549358 -0.24037695 -0.52648759
0.78212738 0.30355787 0.54417771
0.48846579 -0.34892988 0.45966101
0.47360086 0.69765663 0.53756624
0.46291971 -0.48925114 -0.73914725
0.67673969 -0.6139164 0.406362
0.96705627 -0.40248013 nan
0.31093359 -0.20736408 0.57708406
-0.62447166 0.9826293 nan
-0.26155281 0.56753063 0.78070426
-0.081684589 -0.79077673 -0.60662985
-0.10395241 0.53463936 0.83866245
0.58720255 0.48371983 0.52019835
-0.70954275 0.59706974 0.37424162
-0.66430807 -0.9499197 nan
-0.62080288 -0.36074972 0.69603407
-0.46145344 -0.96973276 nan
0.098911285 0.012147427 -0.27207613
0.561831 -0.47710323 -0.6758095
0.40466404 -0.052084923 0.91298091
0.48995304 0.0021839142 -0.87174606
0.25884867 0.28258896 0.92365623
0.57926798 -0.365623 -0.73478174
0.31771517 0.20190811 0.92643952
-0.81646633 -0.47306156 -0.33105206
0.097955704 -0.28182697 0.9544518
0.11414146 0.58167553 -0.80537277
0.23837185 -0.59540129 -0.82125473
-0.42593622 0.45467949 -0.78220516
0.55794239 -0.78668594 0.26424521
-0.0067739487 -0.41179037 -0.91125345
-0.68777418 0.0053734779 0.72590482
-0.68386602 -0.12594318 -0.47172976
-0.27920198 -0.17802811 0.9435848
0.018223286 -0.27701807 -0.96069187
0.08082056 0.30081224 0.95025259
0.30224991 -0.28480196 -0.90968829
-0.4339695 0.61996555 -0.082893848
0.74956465 0.14690399 -0.64542395
0.015061855 0.46773767 0.88373899
0.26104546 0.59673786 -0.75878799
0.70610952 -0.33435535 0.62419212
-0.22451687 0.28017378 0.12032413
0.333426 -0.50651217 0.79515564
0.11355019 -0.078364372 -0.99043697
0.80571365 0.11892366 0.58024359
-0.7622304 0.67977095 nan
-0.35280561 0.95856762 0.50174284
-0.33458233 0.68154955 -0.65080327
0.58256388 -0.033769608 0.81208307
0.98379993 0.29776192 nan
-0.46773911 -0.39623451 0.79007488
0.21486807 0.28182554 -0.24933052
0.22992992 0.74956369 0.62071455
0.011715412 0.82666779 -0.56256831
-0.54432678 -0.32263994 0.77434605
0.60215139 -0.264153 -0.75341684
-0.20231581 0.93557739 -0.77066469
-0.088765621 0.85721302 -0.50725389
0.035048962 0.030158043 0.99893045
0.094983101 0.71481991 -0.69282806
-0.32264757 -0.94644928 0.011500552
-0.78343678 -0.65722942 -0.26489925
-0.2008729 -0.69099903 0.69438493
0.71890068 0.096889019 -0.68832719
0.84126186 0.32266617 0.4337799
0.31175709 -0.87691212 -0.36583149
0.073335648 0.54168701 -0.12734842
0.08505106 -0.63164473 -0.7705785
-0.67167521 -0.23758888 0.70171499
-0.029493332 -0.93582773 -0.35122156
-0.43990469 0.90608406 nan
0.29350758 -0.52867031 -0.23670292
0.32855654 -0.49851179 0.80220735
-0.14171982 -0.95662308 -0.25453448
-0.82115936 0.91183138 nan
0.25994015 0.52161121 -0.81262094
0.64693213 0.059067249 -0.16938782
-0.63416719 0.15595627 -0.75730419
0.67187452 -0.31150103 0.67197597
0.46771336 -0.20503759 -0.85976964
-0.23816538 -0.99059963 nan
-0.33238602 -0.15311384 0.37775564
0.99593878 -0.39070272 nan
0.34826231 0.060111046 -0.93546778
-0.83060694 -0.74565363 nan
0.35361862 0.64072275 -0.68148971
-0.98235607 0.68217564 0.14221096
0.87592411 -0.27444744 -0.3967815
-0.67894793 -0.21224451 0.70283854
-0.014507294 -0.15733671 -0.98743844
0.43468761 0.044559956 0.8994782
-0.32672405 -0.19947958 0.20051622
0.34515047 -0.51098061 0.78725469
0.66822958 0.14011288 -0.7306419
-0.74914551 -0.32237005 0.57866967
-0.19227314 -0.90225935 -0.3859522
0.055386066 0.80366564 0.70703793
0.40364838 0.86377716 -0.30159077
-0.12356901 -0.34200478 0.93153822
-0.78260422 0.51715422 -0.34652871
0.67563915 -0.10042858 0.73036009
0.65936518 -0.44843674 -0.37487602
-0.019582748 -0.66068077 0.75041145
-0.38938332 -0.17691898 -0.90392494
-0.22599316 -0.34482336 0.91105652
-0.50364304 -0.42547226 -0.7518757
-0.14430714 -0.15849257 -0.93645287
0.52392244 -0.018379688 -0.85156763
0.31440163 0.20155287 0.92764652
-0.21065283 -0.58785772 -0.78105617
0.25693893 0.59301281 0.76309776
0.11918068 0.66058731 -0.54321003
-0.0043883324 0.31858253 0.94788498
0.67418623 0.51276588 -0.53154874
0.99422169 0.57375765 nan
-0.82786846 0.54578543 -0.12942977
0.1988821 -0.84745121 -0.11489534
-0.19050121 0.97562981 -0.10888425
-0.3408885 -0.5353241 0.77280217
0.47198677 -0.76636076 -0.43579772
-0.67963123 0.31349421 0.66319132
0.29718685 -0.15570831 0.29511452
0.61158848 0.045844555 0.78984672
0.084461689 0.023731232 -0.99614412
0.30278349 0.67747498 0.67033559
0.14291191 0.9633708 -0.22692041
0.13426495 0.13852358 -0.71804619
0.80845118 0.65128994 nan
0.2761755 -0.6177907 0.73624843
-0.17657852 0.82196093 -0.54147971
-0.4189086 0.97597027 nan
0.70706558 -0.60940981 -0.048399448
0.36617756 0.85526609 0.36665225
0.42358732 -0.4001832 -0.81266671
0.17563534 0.737082 0.65258127
-0.10299635 0.019927025 -0.9944821
-0.96780348 0.50859261 0.06577158
-0.88334131 0.53232384 nan
0.36855507 -0.20586634 0.90652424
0.67523575 -0.66807413 -0.31262377
-0.071601391 0.81375933 0.5767746
0.61387968 0.73685026 -0.53495073
0.89005566 0.11905956 0.44002926
-0.71152925 -0.28798342 -0.64093035
-0.29984903 0.26444149 0.91660309
0.41908264 -0.90925884 nan
0.21604204 0.7852602 -0.053992271
0.63962936 0.385077 -0.66527438
0.12164307 -0.62328863 0.7724728
0.28208113 0.14157009 -0.94888783
0.40890837 0.79067373 0.45566329
0.20734167 -0.47443295 -0.67700243
0.57589674 -0.68029928 0.45336059
-0.0017666817 -0.092177391 -0.99574107
-0.75190067 0.81199265 nan
0.52170277 -0.015050411 -0.85299456
0.27704239 -0.58824158 0.10400915
-0.43448687 -0.87622499 -0.20844892
-0.19583988 -0.17004538 0.96578014
-0.45714235 0.89490175 nan
0.045996666 0.32811785 0.94351631
0.84090948 0.68562651 0.71319532
0.96255255 0.062337875 0.26383057
0.99527645 -0.89587736 nan
0.47124624 -0.21404982 0.85563409
-0.68853569 -0.0031867027 -0.72519547
-0.89105225 -0.11263895 -0.68348598
-0.89281893 -0.20481634 -0.40115413
0.56461382 -0.080826283 0.82138807
0.31688643 0.54956341 -0.773022
0.19621611 -0.27135515 0.94226623
0.65357304 -0.23827028 0.85242033
0.45773315 -0.40831566 0.78978395
0.39527798 -0.64736509 -0.65166998
-0.36231852 0.7233963 0.58772707
0.19354439 0.32330799 -0.92628962
-0.56340837 -0.84390306 0.38564587
0.43186808 0.26021957 -0.86358309
0.85689259 0.21781826 0.46721548
-0.42831612 0.85370588 -0.29619521
-0.67323399 -0.54095507 0.50410682
0.17022038 0.43394709 -0.74577093
0.73483419 0.3531208 0.579072
-0.42888451 -0.7156024 -0.55133593
0.54933739 -0.70023918 0.45595348
-0.062029362 0.3110671 -0.94836158
0.15218115 0.39570427 -0.097248554
0.54745913 -0.25166082 -0.79809487
-0.45956707 -0.72914457 0.50709593
-0.058115959 -0.13625908 -0.98896712
0.70744705 -0.90201902 nan
0.24938726 -0.86068487 -0.64179897
-0.89372015 -0.64286661 nan
0.92988491 -0.040014267 -0.36566776
0.6838994 0.38893032 0.61726397
0.13020611 -0.88215351 -0.45260525
-0.35684061 0.8650403 -0.52903223
-0.78572512 0.14943838 -0.60025346
0.020305157 0.5140357 0.85752845
0.087409019 0.33137226 -0.93944246
0.66621685 0.48311329 0.56811678
0.23412371 -0.78632355 0.23145294
-0.22544289 0.48453188 0.84522444
0.17333698 -0.36170197 -0.91603822
-0.80802059 -0.72868204 nan
-0.1123147 0.33129454 -0.93681872
0.62951899 0.99396515 -0.3115716
-0.44059563 0.95395136 nan
0.3723278 -0.051665306 0.92666215
-0.91584253 -0.50982523 nan
-0.40850592 -0.050801754 0.91134083
0.96114254 0.80576897 0.098636627
0.9814477 -0.68019485 nan
0.18604565 -0.68718004 -0.70226103
-0.013978004 0.66915941 0.74298745
-0.45305634 -0.80030155 -0.39275619
0.90061235 -0.67849922 -0.3157692
-0.92605066 0.95979929 nan
0.87621021 0.3452673 0.33622333
0.84748459 -0.79249525 nan
0.97478676 -0.15854979 0.15701199
0.89593315 0.53419113 0.79540157
-0.73173857 0.48252583 0.48138082
-0.12044096 0.7584362 -0.64052206
0.074019909 -0.17124271 0.98244441
-0.28042126 0.87978888 -0.38384303
-0.072606087 0.70102644 0.19959402
0.11344004 0.013846397 -0.99344832
0.18561649 0.78259945 0.59420919
-0.43920994 -0.61468506 -0.655177
-0.3167882 0.88229132 0.34814829
-0.93045425 0.75716114 -0.15790939
-0.054244041 -0.89757156 0.43751892
0.6895752 -0.84673882 nan
0.077215195 0.53102541 0.84383047
0.049194336 0.61140633 -0.78978622
-0.67357302 -0.68254423 -0.90606785
-0.7940135 0.075891972 -0.60314423
-0.83204794 -0.96525621 nan
-0.20452929 0.047741413 -0.97769552
0.96213818 0.49649715 nan
0.24733543 -0.92442179 0.51034355
0.43295193 -0.14182234 0.89019048
0.07113409 -0.18173265 -0.98077172
-0.45861053 0.95342541 nan
0.88781309 0.29855061 -0.35022202
0.79551601 0.83356953 -0.59902096
-0.51490879 -0.013169289 -0.85714382
-0.52180529 0.016117096 0.85291237
0.036025047 0.08960104 -0.99532598
-0.65745592 -0.64651871 0.38699517
-0.81646633 0.54853058 -0.57062674
0.35148573 -0.41672516 0.83833045
-0.77515554 0.39922714 -0.48964432
0.54541302 -0.27865839 0.79048985
0.64656305 -0.37900877 -0.66204876
0.23168564 -0.92048502 -0.52083111
0.30281973 0.89778233 -0.31982356
-0.97944164 -0.74375486 nan
-0.21440411 -0.68089104 -0.70029867
0.05176115 0.61916542 0.78355277
0.72008801 -0.46314764 0.60599613
0.19828272 -0.44703054 0.87226582
0.64202118 0.28788424 -0.71058536
0.89551401 -0.0044975281 0.44501063
-0.5285821 -0.55595541 -0.64149398
-0.57512379 -0.17709637 -0.97268057
0.64972067 0.22213125 -0.7269944
-0.42726755 0.37106228 0.82447267
0.86869431 -0.80627632 nan
0.60274792 -0.051790714 0.79624909
0.67289257 0.90556765 0.84599209
-0.30654907 0.16181278 0.93800014
0.63158798 -0.98744011 nan
0.21357393 -0.7492466 0.62690961
-0.26735163 -0.24957323 -0.93071818
-0.14325047 -0.069068909 -0.69660378
0.49877071 0.21881533 -0.83865821
0.19891024 0.49427366 0.84624362
-0.30976677 -0.3570447 -0.88122851
-0.080850124 -0.48686266 0.86972868
0.67027473 0.56887054 -0.26473141
0.24300766 0.93993282 0.23973653
0.6039629 -0.56326866 -0.56387699
-0.45731878 0.55217218 0.6971122
0.10962439 0.44824886 -0.88716149
-0.60183573 -0.19692469 0.61006212
0.029752254 0.81563568 -0.57780033
0.82363605 -0.71949434 nan
0.54828405 0.57406282 -0.60814178
-0.86274481 0.47921515 0.16132025
-0.12254047 -0.36397362 0.69803095
0.076369762 0.13030005 0.98852903
0.38826418 -0.28067493 -0.87776566
0.049449921 -0.09859848 0.99389791
0.38960028 0.61832047 -0.68256241
-0.36332989 0.63260794 -0.44174671
0.24063301 0.069339275 -0.96813625
-0.89906549 0.79280567 nan
0.17896366 -0.45081615 -0.87449229
0.19096994 -0.017960548 0.98143154
0.15924597 0.22072268 0.79767513
0.98288202 -0.49877167 nan
-0.65404081 -0.44305468 -0.61313385
0.638484 -0.17482567 0.74951595
-0.56559515 0.27451038 -0.77765429
0.52320528 -0.48922539 0.40481043
0.91146994 -0.76989985 nan
0.45426035 0.81287146 0.36453745
-0.38029957 -0.92741919 nan
0.44954205 0.25230837 0.85688531
0.6308341 0.69017506 0.32164764
-0.26823092 -0.51701927 0.81286114
0.50061178 -0.71904707 -0.48203647
-0.32604885 0.48265123 0.81285912
-0.5598011 -0.10532618 -0.82190579
-0.71967363 0.42308092 -0.60409784
0.62628555 -0.019973755 -0.77933782
0.034386158 0.45145988 0.89162856
-0.5855689 0.30889654 -0.74946111
0.97466564 0.92520618 nan
0.71370697 -0.11386442 0.15530634
-0.83203268 0.69900703 nan
-0.22499323 0.24054813 -0.94420052
-0.85145092 0.02731514 0.52372247
0.87138271 -0.16127539 -0.46333832
0.34896278 0.6031518 -0.67829466
0.84957457 -0.11589527 -0.51457876
0.99565649 -0.6677742 nan
-0.67569637 0.89033031 nan
0.61255217 -0.25261545 0.74897611
0.28623295 -0.76116228 -0.27258873
0.32061911 -0.30970192 0.89514697
-0.85815763 0.62951612 nan
0.66496372 0.06704855 0.74386001
-0.65677691 0.5510993 -0.5147171
0.22235489 0.51119089 -0.74989367
-0.00263834 0.75173903 -0.65945542
0.39865589 0.0246768 0.91676855
-0.37687826 0.2373805 -0.89532858
0.37364006 0.22627354 0.89955175
-0.44091415 -0.77678537 0.11037827
0.55474281 0.5554409 0.61947221
-0.56531811 -0.55492687 -0.61030453
-0.83200693 -0.81793308 nan
-0.26869392 0.40683126 -0.87309331
0.90947819 0.051925659 0.097129345
0.051320553 0.68144178 -0.73007071
0.76209307 0.11836958 0.63655537
0.024664879 -0.68680763 -0.72642058
0.34072447 0.53585577 0.77250594
0.5632987 0.33808661 -0.71240473
0.96195459 0.3627634 nan
0.91071701 -0.8006649 nan
0.73640347 -0.86300898 nan
0.75842142 -0.040381432 -0.65051234
-0.75263071 -0.68683577 0.51505947
0.68205166 0.75823736 nan
-0.31694746 -0.13588142 0.93865889
0.48954391 0.089883804 -0.86733365
0.77359676 0.54146957 0.3291789
0.18701315 0.82491732 -0.77708864
0.94910622 0.9432869 nan
-0.75242376 0.26229858 -0.60420024
-0.71598816 -0.21656752 0.6636712
0.82559776 -0.37790155 -0.41902119
-0.92897224 -0.21244764 -0.015138149
-0.018255234 0.98688793 -0.16037141
0.72126579 -0.88126421 nan
-0.25469065 0.68088436 -0.68667978
0.36610556 -0.94152641 nan
-0.80405617 -0.95184278 -0.18328905
0.87899637 0.91227579 nan
0.30625486 0.96888065 nan
-0.31412745 0.84772444 0.42741925
-0.8441062 0.51078987 -0.16302891
0.070635796 0.1050005 -0.54592276
-0.68178749 0.36729908 -0.63265884
0.73808908 -0.89835501 nan
-0.80710316 0.36018753 -0.46781343
0.17267275 0.98044968 0.094353326
0.34504938 0.15441751 -0.032662392
-0.93368483 -0.72684622 nan
-0.28735304 -0.25280046 -0.92386156
-0.36074066 0.77112055 0.52463251
0.94314337 0.68741655 nan
0.5878315 -0.17785978 -0.40030766
0.89408684 0.79102087 nan
-0.7144351 -0.25818872 0.65032381
-0.053085327 -0.20364523 -0.97760451
-0.18755245 0.051915169 0.98088169
-0.74956799 -0.86933994 0.41921473
-0.011478901 0.23230505 0.97257525
-0.38788843 0.34870863 -0.85319686
0.4049778 0.59256124 0.6963219
0.69375849 0.55939531 -0.45362547
0.55989885 -0.23992634 -0.1674509
0.27254581 -0.49272633 -0.82640153
-0.52819157 -0.95633364 nan
0.45041704 0.15922499 -0.87850547
-0.36850166 0.27255726 0.88877392
-0.24108267 0.52558517 -0.93642187
-0.95551777 0.26739645 0.12443837
-0.98950672 0.84083748 nan
0.079843998 -0.93759155 0.33844796
0.091269493 -0.78949594 -0.60693169
-0.51837683 0.079791069 -0.5571909
-0.90626478 0.4284997 nan
-0.1522131 -0.31370354 0.93724132
-0.87774181 0.40718269 -0.25253034
0.24619579 0.88233232 0.40109512
0.23973179 0.51874161 0.389606
-0.2884593 -0.43759155 0.85164833
0.84002304 -0.12923431 -0.52693433
-0.80609322 -0.88741922 nan
-0.37031651 -0.28050804 -0.88553989
0.17615891 0.67416573 -0.013111591
-0.81334782 -0.4849968 -0.32131517
0.066732883 0.24906111 0.96618593
-0.39372683 -0.72276306 -0.56797248
-0.26931572 -0.31393576 0.91044676
0.72004652 0.8244195 0.11456394
0.56783342 0.51071644 0.64554936
-0.76317739 0.97501612 nan
0.75691223 0.11915493 0.64256203
-0.78525162 -0.72434616 nan
0.50876093 0.92628908 0.83806229
-0.65121603 0.79705477 nan
0.03196907 0.46136475 0.88663441
0.42673826 -0.24853897 -0.86955321
0.63752413 -0.89909554 nan
-0.26165009 -0.17582369 0.61590767
-0.1949172 0.073237419 0.97808158
0.22218084 -0.91768026 -0.3293913
-0.19607782 -0.091754913 0.97628611
-0.19763374 0.62834167 -0.75241452
0.022809505 0.37020016 -0.86094189
-0.74036789 -0.65478373 -0.1520317
-0.10402966 -0.62121296 0.7767061
0.55996466 -0.82837534 -0.015293417
-0.11245203 -0.51374626 0.85054058
0.0096869469 -0.76366806 0.28330898
0.041656494 -0.30230284 0.95230132
0.71004725 -0.20688248 -0.67307693
0.33522129 -0.18904829 0.92297751
-0.46853256 0.1593976 -0.86894745
0.42685986 -0.66344976 0.2326355
0.6490407 0.41887045 -0.63505411
0.036557674 0.55728626 0.82951528
0.22123671 0.66489935 -0.71341658
0.58009577 0.59143686 0.56008148
-0.19604206 -0.16027212 -0.063346386
-0.30007172 -0.78148508 0.54702652
0.49661827 0.87155294 nan
-0.89393711 -0.017127514 0.44786501
0.88124037 0.34239483 -0.3258546
0.26618147 0.92289686 0.040091991
0.97622871 0.71601439 nan
0.37531328 0.7871809 0.48937324
0.2474823 0.53471136 -0.80798286
-0.78595924 -0.41596746 0.45742664
0.76734686 -0.13691854 0.0029029846
0.80390453 0.42036772 0.42074752
0.22414017 -0.53119612 -0.81706297
-0.99953651 0.81557703 nan
-0.72723818 0.84019136 nan
0.75223064 0.97269058 0.058706284
-0.75115061 -0.15575647 -0.64149255
-0.83523083 -0.76827812 nan
0.72548389 -0.49283552 -0.48040217
-0.50209665 -0.35161924 0.79010308
-0.45274353 0.47413206 0.36439562
-0.077429771 -0.73868704 0.66958648
0.61187792 0.45728159 -0.64536732
0.47535372 0.19591045 0.85770506
-0.77537155 0.33843565 -0.53316063
0.19881392 0.028532982 0.75880337
0.42295408 -0.50266314 -0.75394934
-0.24073267 -0.76146889 0.60184127
0.77009916 0.59945869 -0.21816625
-0.0092377663 -0.25721025 0.96631134
0.65816545 -0.76038837 -0.41296673
-0.17706537 0.4713335 0.863998
0.31251764 -0.66990089 -0.6734727
-0.030763149 -0.039101601 0.99876159
0.87735605 0.44336891 -0.18349487
0.32529402 0.79992628 -0.29531765
0.93717194 -0.74279213 nan
0.18003607 -0.86691713 0.46480283
0.48183632 0.51847172 -0.7064141
-0.66810322 0.5103693 0.54144371
-0.72272444 -0.24514914 0.0077061653
-0.96345711 0.99338198 nan
0.77780533 -0.36399841 -0.51237094
0.98414421 0.52059507 nan
0.29416704 0.22375584 -0.92919272
0.10762882 0.11710215 0.69508934
0.42014647 -0.55279875 -0.71964604
0.66432619 0.38104486 0.64302063
0.3245573 -0.89230442 -0.31377599
0.70633936 -0.87551641 nan
0.81237793 -0.3564887 0.38169146
0.992414 0.77659416 nan
0.86352777 -0.48911381 -0.12283106
0.10849094 -0.62610292 0.77215594
0.78816175 -0.13665819 -0.60010463
-0.61839628 -0.17529535 0.85672426
0.15940905 -0.53929377 -0.82689238
-0.15913153 0.6800046 0.71573102
-0.24512625 0.064624786 -0.96733487
0.78763342 -0.1280241 0.60269678
0.75971413 -0.79222012 -0.68082285
-0.57595921 -0.41117525 0.70654505
-0.35626507 0.53173637 -0.7683304
0.29516411 0.76821852 0.56808311
-0.6558857 -0.06132412 -0.75236517
-0.85008955 0.3365283 0.71527004
0.013438225 -0.15258551 -0.98819888
0.82376146 -0.61266422 nan
0.63557625 0.68710327 -0.35203972
0.7689395 0.4602809 0.44370437
-0.45617247 0.92834854 -0.079012394
-0.61530352 -0.39164686 0.68411571
-0.32413864 -0.55067873 -0.76921201
0.39598656 -0.45216274 0.7992143
0.2090354 -0.39623356 -0.89403754
0.86701441 -0.36692381 -0.80740833
0.51074934 0.16481256 -0.84378427
-0.51224422 -0.72103167 0.46660385
-0.49107313 -0.57356834 -0.65564209
0.42887878 -0.15454435 0.89004439
0.14170218 0.44231701 -0.30712986
0.96546364 -0.17034721 0.19713397
0.32844687 -0.34743309 -0.87830114
0.59859228 0.78872776 0.13998501
-0.80360508 -0.4730587 -0.36115697
0.70971537 0.5810914 -0.86470556
0.38557673 0.030412674 -0.92217439
-0.46871853 -0.066586018 0.8808344
0.23944807 -0.86495209 -0.44104704
0.80042887 -0.12747526 0.58571637
0.32763958 -0.68882179 0.037337303
-0.18460417 0.59014654 0.78590608
-0.45373535 -0.75817251 -0.46829334
-0.98097467 -0.60827971 nan
-0.61647034 -0.53865719 -0.57429332
-0.91540956 0.3489933 -0.7090044
-0.5869627 0.001560688 -0.80961245
-0.11041164 0.20176554 0.97319061
-0.80204439 -0.58347034 -0.12762111
0.9114809 -0.22095299 0.34696159
0.55182409 -0.70294189 -0.19054031
0.083105564 -0.76952791 0.63318264
0.048907757 -0.78184605 -0.62155026
0.030900955 -0.078567505 0.9964298
-0.45420647 -0.65792036 -0.60069734
-0.041229725 -0.63881063 -0.067773819
-0.49496508 0.60301733 -0.62560344
0.95125198 0.89675522 nan
-0.013453007 0.4125948 -0.91081536
-0.018654346 0.33554077 0.94184095
-0.29640961 -0.60561657 0.33710146
-0.40682125 -0.40385103 0.81939054
-0.46494293 -0.9902916 nan
0.50762987 -0.68589592 0.52140075
-0.43846703 -0.19531202 -0.87726843
-0.87643623 -0.35536146 -0.96483946
-0.82752848 0.86279249 nan
-0.9339385 -0.9060955 nan
0.4085865 0.40814114 -0.81638098
-0.94732523 -0.23022413 0.2226471
0.34036779 0.55770969 0.3727932
-0.70838022 -0.54553509 0.44787154
0.35934067 -0.29578543 -0.88509053
-0.56418943 0.69488144 0.44590366
-0.59219503 0.830194 nan
-0.9680171 -0.99901581 0.42634296
0.56703997 0.010692596 -0.82362086
0.93397331 -0.11885595 0.33699718
-0.42777443 0.73866129 -0.52094966
-0.99529219 -0.78313541 nan
-0.22617817 0.17717934 0.079657078
0.8398838 -0.72891617 nan
0.48824358 -0.75197506 -0.4428902
0.3237586 0.25801992 0.91027802
-0.41160727 0.8814683 -0.23150183
0.63081312 0.88001251 0.33593321
0.99015379 0.58422709 nan
-0.22825575 -0.31496477 0.92124724
-0.0079674721 0.60193825 -0.79850286
0.71701813 0.99301672 nan
-0.97171831 -0.71594191 -0.99629068
-0.037744999 -0.83479786 0.54926115
0.57593536 0.70091629 -0.42073131
0.16990995 -0.20720005 0.9634307
0.4747386 0.34708977 -0.80879664
-0.12754297 -0.6853776 -0.3818264
0.36070108 0.56264734 -0.74385661
-0.058067322 0.61872101 0.78346181
0.15104055 0.82340097 -0.54698956
-0.75046587 -0.96894693 nan
-0.84066534 0.2396884 -0.38471937
0.93107891 -0.075276375 0.35696709
-0.39268684 -0.46698284 -0.79229039
0.64174223 0.60032988 0.47725359
0.56129885 -0.074199677 -0.82428026
-0.39596081 0.52355385 -0.90899706
0.17997456 -0.77552938 -0.60511428
-0.7390871 -0.027225494 0.67305946
-0.30079079 -0.39199734 -0.86940384
-0.15476799 -0.98616838 0.059319139
-0.77382326 0.20593309 -0.42352104
-0.83189058 0.8246541 nan
-0.27248049 -0.0084896088 -0.96212387
0.074188232 0.75857306 0.64735079
-0.84915495 0.31387663 -0.4247556
0.37385368 0.081923962 0.23860073
-0.01883316 -0.3850584 -0.92270005
0.88034296 0.58149672 nan
0.17624044 0.80614328 -0.56486487
0.18553591 0.69979477 0.68982875
-0.10285378 0.36551094 -0.075734615
-0.8419404 0.33828545 0.42035621
-0.3765254 0.76606226 -0.52093881
0.18351746 0.63730621 0.74843979
-0.0077610016 0.38945055 -0.92101467
0.21378517 -0.83965158 -0.78589535
-0.058694839 -0.84814072 -0.52650952
-0.71170664 0.69987822 0.060366701
0.30270433 -0.39783001 -0.86608392
-0.9262681 0.38462877 nan
-0.15922928 -0.94510126 -0.00042963028
0.72111368 -0.36360455 0.58973449
0.17581081 -0.47274256 -0.86348426
-0.17806864 0.87560558 0.44900608
-0.57559633 0.1874423 -0.7959612
0.79987097 0.58246326 0.52572823
0.42334557 -0.651474 -0.62957144
0.70924568 -0.93934822 nan
-0.659235 -0.90130329 nan
-0.72556257 0.50111389 0.47163951
0.31280136 -0.78425741 -0.34702682
-0.39890528 -0.084379196 0.91310167
-0.044322491 -0.79673481 -0.60270154
0.9893527 0.34030628 nan
-0.95596409 0.044251442 -0.29012835
0.33987665 -0.23484993 -0.3193531
0.51568794 -0.70759249 -0.48309299
-0.49742174 -0.60870647 0.61810035
0.71681118 -0.30997896 -0.62457567
0.19116497 -0.70072508 0.68734294
0.21574926 0.61451054 0.64780092
0.92499495 -0.32483721 0.19714236
-0.011434078 0.023691654 -0.99965394
0.94960022 0.48967981 nan
0.33649349 0.16534281 -0.92705655
0.14265299 -0.062411785 0.080963612
0.098330975 -0.8591466 -0.50219327
-0.92968369 0.43863726 nan
0.18488979 -0.88543224 -0.42641005
0.77851439 -0.049960136 0.62563515
0.79521465 -0.70579767 -0.75755262
0.29779291 0.68549585 0.66439056
-0.040741444 -0.01218605 -0.99909544
0.87666082 -0.74146652 nan
0.20356321 -0.50882816 -0.83645433
-0.0936656 -0.87144136 -0.83366537
-0.1050992 -0.84774971 -0.51987946
0.11593485 0.38458061 0.91578209
-0.51125622 0.28127766 -0.812096
0.52723408 -0.57366753 0.62684113
0.36224127 0.62556505 0.56718588
-0.56744242 -0.93579769 nan
0.75207567 0.54712534 -0.36747253
-0.15728331 0.70211554 0.69447517
-0.65766001 -0.86308098 nan
-0.055437088 -0.3598671 -0.17758465
-0.096178055 -0.37205267 -0.92321533
0.69907618 -0.83764458 nan
-0.16848946 0.19024801 -0.96716958
-0.9313097 0.96006918 nan
-0.64341736 0.9635911 0.11231995
-0.52748251 -0.65182829 0.54486883
-0.39893627 -0.24620485 -0.88330799
-0.12459421 -0.9726038 0.19626036
0.11603642 0.50097084 -0.85765016
-0.40541744 -0.451406 -0.43482637
0.34665823 0.095719337 -0.9330948
-0.59210968 -0.95122576 nan
-0.56194067 0.54480982 -0.62241864
0.99333715 -0.92180729 nan
0.36722517 0.8971591 0.70614004
-0.93369865 0.059514999 0.35307905
0.53765059 -0.74345016 -0.39776084
-0.8717947 -0.50227976 nan
0.61313248 0.091796398 -0.78462857
-0.38995981 0.085650444 -0.56003189
-0.78889608 -0.16055441 -0.59318233
-0.68462563 0.2385006 0.68877083
-0.044517517 -0.18365479 -0.98198223
-0.16691685 -0.49592352 0.85217285
-0.61848116 0.17974138 -0.4002037
0.78940964 -0.77148438 nan
-0.96214437 -0.66578054 nan
0.22185326 0.11604834 0.96814972
-0.29855537 -0.88098764 -0.36704975
0.82218838 0.76774597 -0.82147264
-0.64016056 0.024295807 -0.7678569
0.30673265 0.85755968 0.41292429
0.63742876 0.39852905 -0.65943849
0.46759987 0.7230792 0.50843567
-0.16150236 -0.32129622 0.5625248
-0.84612799 -0.08279562 0.52650958
0.51800728 0.97021723 nan
-0.24971247 0.022084236 0.96806818
0.35173655 -0.069970608 -0.93348032
-0.37811947 -0.85885382 -0.84145498
0.65973616 0.47536564 -0.58204442
-0.61960173 0.77578497 0.11937902
0.17681026 0.49941111 -0.8481313
-0.40202665 0.94455624 nan
-0.32206154 0.95781279 0.96885252
-0.015328407 -0.18462753 0.98268902
-0.39371872 0.38320065 -0.83554947
0.28297234 0.32936049 0.90080428
0.22169828 -0.038323402 -0.97436196
0.89188528 -0.6244297 -0.12111902
-0.59010696 0.345788 -0.72952342
-0.37083101 -0.56802273 0.7347343
0.69752455 -0.44080162 -0.56493664
-0.9461422 -0.16132927 0.28069165
0.7177434 -0.28640604 0.31403637
0.098142147 0.48937893 0.86653125
0.49084663 0.59755325 -0.63403445
0.087352753 -0.56459713 0.8207311
0.27549171 -0.95483446 -0.11133508
0.40425539 0.26016331 0.86053848
0.010536671 0.64336443 -0.76548755
-0.85648918 0.33989716 0.3884536
0.86506271 -0.89481258 nan
-0.76821709 0.24063349 0.59324366
0.98406887 0.64167595 0.58642149
0.61323786 0.073653221 0.78645694
-0.71605396 0.17243624 -0.67641145
-0.87248898 -0.87738323 nan
0.89017963 0.84110498 nan
-0.56334686 0.98832178 -0.66951561
-0.072500229 -0.41412497 -0.90732807
-0.58216286 -0.63709736 0.50516671
-0.13863277 0.46300268 -0.87544817
-0.23284149 0.12153053 0.96489131
-0.67645884 -0.22230482 0.76489496
0.46705246 0.11759281 0.8763755
-0.37004185 -0.42776012 -0.82467586
-0.65062428 -0.12940836 0.74829239
0.55630875 -0.0089483261 -0.83092749
0.45701313 -0.8304534 0.064704895
-0.25904083 -0.65801716 -0.70704406
-0.80778408 0.86357594 nan
0.23216295 0.033320904 -0.97210604
0.30022907 -0.77951527 0.54974401
-0.63619471 0.22772884 0.80636024
0.78164244 -0.40936852 0.47058743
0.66772747 -0.7553544 nan
-0.64221001 0.789258 nan
0.56818676 -0.86451435 nan
-0.44584656 -0.96476078 -0.74692154
-0.8158884 0.60747957 nan
0.60245419 -0.94529676 nan
-0.83621168 0.59350586 nan
-0.48828363 0.3333354 0.8065151
0.65821075 -0.74732447 -0.32468176
-0.14957333 0.11625147 0.98189276
-0.092518806 -0.11625242 -0.98890126
0.41648054 -0.8720336 0.25710174
-0.75244665 0.64420938 -0.13717988
-0.065673351 0.029195786 0.23484087
0.60205412 -0.72615862 -0.33200073
-0.40736866 -0.60868788 0.68084496
-0.15797138 0.72811699 -0.66700125
