# .PCD v0.7 - Point Cloud Data file format
VERSION 0.7
FIELDS x y z
SIZE 4 4 4
TYPE F F F
COUNT 1 1 1
WIDTH 1310
HEIGHT 1
VIEWPOINT 0 0 0 1 0 0 0
POINTS 1310
DATA ascii
-0.009398804 0.28496456 0.4965992
-0.0074502947 0.22564125 -0.31250906
0.0023648739 0.76221514 0.075389385
0.0064874603 -0.93198204 -0.0085396767
0.0073170806 0.15610838 0.95509672
-0.00010996818 0.28122854 0.81778669
0.0082047367 -0.95408964 0.63105774
-0.0048417901 -0.2068038 0.074130058
0.0016794062 -0.48017502 0.14384222
0.0077045774 -0.71869755 -0.23917055
-0.0032065725 0.34142256 0.04579401
0.0017594195 -0.40360689 0.27143526
-0.0013656712 -0.16711903 -0.9663496
-0.00061177253 0.48162699 0.10166836
-0.00069716928 -0.78666449 0.25777721
0.0088537978 -0.7976613 0.53900576
-0.0029683351 0.022812366 -0.41508389
0.0033422422 -0.46136665 -0.62188721
0.0040835477 -0.29342556 0.89793777
0.0055219699 0.47703218 0.17924023
0.0031302643 0.15637493 0.52066278
0.0035882043 0.33231688 0.11705637
0.006302557 0.19574976 -0.050062656
-0.003360939 0.13457251 0.43156433
-0.0023442507 0.064855576 -0.35510015
0.00023352147 0.95023584 0.84723854
0.005623579 0.65340233 0.87005138
0.0014727402 0.98762703 0.40868473
-0.0047461321 -0.60401821 0.11525917
0.0042332457 -0.051821232 0.59229136
0.0060256529 0.26120567 0.74866629
-0.0087677194 0.62002611 -0.91901684
-0.0075971554 -0.74971771 -0.7232666
-0.0080977818 0.91418839 -0.5886941
-0.003782134 0.67976332 -0.52383804
-0.0073331357 0.70311546 0.4263978
0.0011392545 -0.73452663 -0.92019987
0.0098397685 -0.58725214 0.067427158
-0.0060733841 0.93813467 -0.53659105
-0.0049207876 -0.63854027 -0.58841181
0.0010021258 -0.035974979 -0.32720613
0.0084887929 -0.91274691 0.29281998
-0.00070137501 0.32753801 -0.45689774
-0.0079340413 -0.4822402 0.45729113
0.0061790226 -0.86045361 -0.86294556
0.00094064238 0.40623331 -0.15982962
0.0052046203 0.52015877 -0.89435625
-0.0039973785 -0.49586439 0.51839161
-0.0033231019 0.89679718 -0.54347324
-0.0086890124 0.4047184 0.81798649
0.0054268693 0.50493145 0.78201151
0.002154808 -0.64618921 -0.1307354
0.0050830124 -0.71632671 0.19680262
0.00051403523 0.49026966 -0.28543711
0.0050869463 -0.89182806 0.85410929
-0.0035425043 -0.79776382 -0.7396574
-0.0051408005 -0.27730179 -0.21949863
0.0059156371 -0.67703962 -0.71536303
-0.0089004422 0.99065018 0.18143463
0.0056648254 0.1217494 0.58615303
-0.0061553097 0.66443634 -0.90891552
0.0016648055 0.87991762 0.44489527
0.00035745144 -0.61178112 -0.27143097
0.0023254824 -0.5603776 0.21883869
-0.00052888872 -0.051682472 -0.67298937
0.0080122044 -0.4059329 0.52924681
0.0006156349 -0.92001295 0.25194502
-0.0015793514 -0.32844925 -0.4250946
-0.0087329773 0.78150654 0.56555605
-0.0069186306 -0.65201092 0.68730545
-0.0010571002 0.73245811 -0.64825821
0.0098537495 0.89893866 0.23165941
-0.0056972979 0.93468428 -0.38012171
-0.0084116077 -0.83276749 -0.94049883
-0.0062232208 -0.88565636 -0.9921813
0.0070468853 -0.08443594 0.6018858
-0.0076606465 -0.022872448 -0.31812716
-0.0051411963 -0.18080711 -0.6465764
-0.0093921376 0.9458952 0.13493061
-0.003736577 0.25403214 -0.51708031
0.0031364774 0.14832211 0.21537828
-0.0033461046 -0.86630297 -0.88568306
-0.0010295057 0.5639677 0.049001217
-0.0048307227 -0.27719307 -0.78376627
0.0057642888 -0.89951468 0.33057737
-0.0041575241 -0.19482613 0.24614191
0.0018613338 -0.96089029 0.22326946
-0.0013199378 0.52499008 0.042462349
-0.007785697 -0.41422367 0.98835754
-0.0064363908 -0.78788137 -0.75761032
0.0083928062 -0.47423363 -0.60928774
-0.0094534112 -0.80884361 0.52440929
0.001689763 -0.91179419 -0.911623
0.0021797752 0.60513353 0.81118441
-0.0056578829 -0.8184371 -0.088330269
-0.0023521089 0.76581049 -0.28315639
0.00010931015 0.95194435 0.75595331
0.0023420095 0.81995058 -0.71905613
0.0027666329 0.041380882 0.8667202
-0.0073497868 -0.60225821 0.078839302
0.0050741099 0.23702288 -0.39539433
-0.0010187674 -0.70831823 0.79576206
0.0042253304 -0.53934193 -0.11603212
-0.0048908996 -0.32136393 0.48910189
0.0032209444 -0.88715219 -0.32933521
0.0023376418 0.87763691 0.43647528
-0.00049391744 0.8885684 -0.61158037
0.0070656156 -0.87723064 0.20837069
-0.00012494564 -0.60056734 0.24975157
0.0085422611 0.66445398 -0.35250616
0.0093306545 -0.82813454 -0.11548328
0.005376711 -0.93001127 -0.82380152
-0.0066656638 -0.50747824 0.63685703
-0.0078259846 -0.99656773 0.31549311
-0.002934966 -0.67447329 -0.57165909
-0.0062283184 -0.44070864 0.30597782
-0.0018635606 -0.49010038 -0.80545378
-0.0079793641 0.21646118 0.31731558
-0.0058956575 0.20396709 -0.28325129
-0.0033981372 -0.94180679 0.3812027
-0.0069231987 -0.0087413788 -0.44693184
-0.0080780312 0.52892971 0.62305737
0.0036839533 -0.13763666 0.11557913
-0.009947476 -0.92023468 -0.8809886
-0.0067925453 0.78626871 0.44453859
0.007490864 0.16343737 0.0038299561
-0.0094493534 -0.022918701 -0.48627043
0.0024961091 -0.82085514 -0.26980925
0.0056692697 0.58957958 -0.065842152
0.0028367566 0.24976587 0.99235106
0.0066487836 -0.442554 0.98360968
0.0021794701 0.74964285 -0.48746014
0.008410044 -0.88196182 -0.6250968
0.0095658349 0.12329102 0.45466852
0.00075595378 -0.55596352 -0.75906229
0.0052013397 0.19312334 -0.59562492
0.0052396394 -0.75181198 -0.61854362
0.000376935 -0.50220108 0.56060123
-0.0023211574 0.064725876 -0.84981918
-0.0029795743 0.34840155 -0.60005331
0.0069439365 -0.98671961 0.95739269
-0.0032199621 -0.7687726 -0.29296446
-0.0080945631 0.07223177 0.8250742
0.0056544687 -0.97118473 0.94836521
-0.0097988416 -0.89558935 0.3924017
0.0026105356 -0.37545538 0.58552504
-0.0033457137 0.14850855 -0.16628695
-0.0095311496 0.18620205 -0.66848755
-0.0039251377 -0.045913219 -0.60376167
0.0075766756 -0.34387064 -0.25535965
0.0015761423 0.35052299 0.75792074
-0.0088499263 0.028526783 -0.01085186
0.0082204295 -0.78092957 0.06137991
-0.0035288287 -0.21548223 -0.90980482
0.0059548235 0.80463362 0.1946063
0.009878845 -0.93431282 -0.18084908
-0.0042659044 0.73111582 -0.03234005
-0.0059287692 -0.22199917 0.153862
0.0073863552 -0.61451292 0.10794878
0.0013487387 0.14315462 -0.23592186
-0.0012048578 0.30076933 0.11460161
0.0063743498 -0.58422327 0.1431284
0.0062658312 0.23781967 -0.63780069
0.00687963 -0.11506271 -0.85328293
-0.0022184134 0.48041964 -0.048649311
-0.0002723503 -0.53169584 -0.98296213
-0.002080841 -0.95828581 -0.25184631
-0.0024042416 0.44883728 -0.47384548
-0.00086561678 -0.81252718 0.9116416
0.000213871 -0.67765331 -0.9452033
-0.0021453428 -0.79813862 -0.64443398
-0.0009993267 -0.16070366 0.77134275
0.00043195725 0.46587992 -0.99083757
-0.0059460495 -0.84615707 0.89409971
0.005521121 0.93200159 -0.62548018
0.0050346279 0.90476656 0.84282398
-0.0047949934 0.69668293 -0.11546183
-0.0073134564 0.45625877 0.33337545
0.0079480885 0.36969709 -0.47915173
-0.0029354906 0.39108467 0.84319544
0.0076124761 0.17655039 0.04505682
0.0011681366 0.076617718 -0.11564684
0.0088815643 0.11981344 0.35023308
-0.0010268115 -0.47479105 -0.49592352
0.0079141902 0.077321053 0.43607807
0.0016593885 0.58078432 -0.65915489
-0.0099123716 0.10128498 0.037528038
0.0089330152 -0.6300602 0.49378681
-0.0077332305 0.16474867 0.86348438
0.0074752569 -0.12880039 -0.74543095
-0.0040927888 0.63244724 -0.56888056
-0.0036422205 0.7492609 -0.49226284
-0.0047986889 -0.36258268 -0.3724494
-0.0012963533 -0.46526337 -0.84724045
-0.0062555885 0.32615566 -0.76991892
-0.0018948078 0.49209452 -0.1891346
-0.0084863566 -0.49914265 -0.087849617
-0.0081110764 0.39415884 -0.71790981
-0.0031732034 -0.37916374 -0.55316067
0.0054616402 0.36836195 -0.68196106
-0.0019926692 -0.04091692 -0.04951334
-0.0076814746 -0.40513897 0.69974756
0.0073958971 -0.88500786 0.33716536
0.003671403 0.98535681 -0.12809801
-0.0048009967 0.35979795 0.19805765
0.007499814 0.17031765 0.69015217
0.0056084679 -0.67831802 0.19100952
0.0047299718 0.51057482 0.58516884
-0.0024491216 0.19325447 0.2060051
-0.0079807285 0.73941851 0.57436705
0.0051996615 0.5401516 0.53345013
0.004704528 -0.22799587 0.12831116
-0.0082979919 0.51159382 -0.7566967
-0.0049263383 0.87873411 0.22866058
-0.0062073185 0.39863443 0.58845854
-0.0042267418 -0.85138416 0.75877619
0.0026747799 -0.29053736 0.080458641
0.004584875 0.18246031 0.59103346
-0.0095634367 -0.062451839 0.78428793
-0.0075033857 -0.86052465 -0.47629356
-0.001759715 -0.34055853 0.063858032
0.0035747862 0.12989473 -0.16413784
0.0048578978 -0.69990444 0.34745598
-0.0027090644 0.80746174 -0.77380991
-0.00042245866 0.18672991 -0.375175
0.0054621268 -0.23594427 0.77344084
-0.0069501065 0.031533718 0.48290396
-0.0061455201 0.49002123 0.66536427
-0.00023518562 -0.46632195 0.60291243
0.0076076938 0.7833395 -0.25761223
0.0028447581 0.60736847 -0.59817076
0.0034833383 0.96484709 -0.46827602
0.00184196 -0.54936266 0.83181953
0.0053165196 -0.82026911 -0.36071873
-0.0024215793 -0.86251497 -0.17398882
-0.0061733294 -0.3163023 -0.40993309
0.0015610838 0.98868704 -0.37839937
0.0063901232 0.37413502 0.11162233
-0.0069562341 0.35061646 -0.35469961
-0.00092710974 -0.88861418 0.42863989
-0.003503232 -0.60413837 -0.96399164
-0.0094849393 -0.25580454 0.0008559227
0.0058323052 -0.071608543 -0.54850674
-0.0058494997 0.46004343 0.63122416
-0.009456682 0.21788597 -0.23129082
0.00880343 -0.39944696 -0.54759312
0.0047041033 -0.24333858 0.4410944
0.00092010974 0.39567375 0.81522942
0.0020363331 -0.29994965 -0.83415365
-0.0015106631 -0.39266062 0.27723217
0.0027757406 -0.74298382 -0.32690573
-0.0068641757 0.3085227 -0.58271027
-0.0068556163 0.8917532 -0.65431833
0.0076593161 0.30680323 -0.1942749
-0.0060284422 -0.63886499 0.023611069
-0.0083413506 0.24147844 -0.37583542
0.0061827232 0.71188879 -0.619174
-0.0094063329 0.80389977 -0.22349977
-0.0012540388 -0.99246645 -0.52344942
-0.0095955757 0.85646725 -0.91610956
-0.0068232487 -0.86595869 0.34090662
0.0099076936 0.44762421 0.64942932
0.0040805913 -0.23793745 -0.45881748
-0.0024625922 0.52799463 -0.15201378
-0.0044053365 -0.074849606 -0.79087877
-0.0041692257 -0.90898418 -0.54940033
-0.0079275798 -0.29071188 0.16248846
0.0058806851 0.76865482 0.9663887
0.0036456871 0.64325094 -0.026077747
-0.0015888071 -0.31630611 0.8303895
0.009250097 -0.998631 -0.035568714
-0.0073408317 -0.0078616142 0.41205549
-0.00084653852 0.40019751 0.17411804
-0.0054347087 0.15393877 0.70211267
-0.0069548464 -0.28659487 0.62726355
0.005136366 -0.70351744 -0.28172064
-0.00035763264 0.50372505 -0.57243252
0.001267252 -0.90820646 0.19622231
-0.0090688607 -0.54363775 0.83947325
-0.0093296384 -0.70251846 0.52316713
-0.0010257387 0.22249174 -0.47546387
-0.0013814259 -0.51159143 -0.48332548
0.0027391291 -0.59624529 -0.083127499
0.0044803093 0.86028385 0.070811272
-0.0084985588 0.16479921 -0.2157836
-0.0022259236 0.67843628 -0.91930103
-0.0050431299 0.64267302 -0.41557598
0.0092325453 0.76939821 0.67621756
-0.0088052321 -0.13748741 0.1325798
-0.00041049958 0.92954874 -0.56993818
0.0048211766 0.82697487 -0.34744644
6.6537854e-05 0.68883228 -0.85903788
-0.004766712 0.96274519 0.54471684
-0.0055979872 -0.58922338 -0.59499884
-0.0048898743 0.56092072 -0.43019962
-0.0070477105 0.33832836 0.24823666
0.0037592791 -0.16598463 0.89090967
-0.00039647578 0.75726986 -0.33969164
0.0063656997 -0.12325335 -0.47717905
0.0076915026 -0.1643033 0.45236969
0.0019921206 0.31781435 -0.72065496
-0.0014823437 0.32446861 -0.031822681
0.0099272775 -0.15220261 0.93092299
-0.0046255542 -0.71200132 0.3416996
0.0094244573 0.79901123 0.90262032
0.005122466 0.094240189 -0.75905132
0.0076048328 0.47016811 -0.92503595
-0.0034860659 0.43052053 -0.16776609
-0.0068829823 -0.93290901 -0.29101944
0.0083452277 -0.16375875 -0.45532274
-0.007131076 0.03545332 -0.13750792
0.0056623747 -0.11278105 0.1869607
0.0053441525 0.87994671 0.034758091
-0.0053466177 0.4173913 -0.67724323
-0.0019296217 -0.64016247 0.121768
0.0070965816 -0.12791586 0.21600819
-0.00049393176 0.63256741 0.6861763
-0.0097442912 0.28396082 -0.88330269
0.0085780481 -0.40433741 0.1837883
0.0056678532 0.43018532 0.020029545
0.0011146259 -0.28292179 0.055482864
-0.00026045323 0.28331566 -0.057298183
0.0016091537 0.8177309 0.82264853
0.0019567346 0.28306913 -0.75996017
-0.0048156977 0.090106964 0.59987736
-0.0035980176 0.79976511 0.4719615
-0.0014379359 0.75037193 -0.89547062
0.0054238318 -0.2240572 -0.6115098
-0.003409195 0.63374758 0.98415327
-0.001571312 -0.79946709 -0.58566141
-0.0013710165 -0.68800402 -0.8685832
-0.00081618788 -0.71404934 -0.58526707
-0.0013891697 -0.55313349 0.23246384
0.0068373154 -0.35746002 0.51553345
-0.00076228619 -0.83902931 0.60564041
0.005236492 0.80116892 -0.594594
0.0099561075 0.65737581 0.15577793
0.001001401 -0.80024099 -0.06827879
-0.0051136925 0.85883951 0.56546879
0.0047278404 0.70170832 -0.23399782
-0.0011287737 0.56460667 -0.92200184
-0.0098146014 0.48298788 0.36394882
0.0043327282 0.34407091 -0.18918467
0.0066573666 -0.97219753 -0.54664421
-0.0081872987 0.95157385 0.61432648
-0.0021308898 -0.52477694 -0.5845046
-0.0080768298 0.47083426 0.072871208
-0.0065190508 0.57097435 -0.72736979
-0.0072018383 0.059605122 0.13146973
-0.0015471459 0.53238916 0.83317804
-0.0038871241 0.41951227 -0.60221529
0.0068928576 -0.56194782 -0.11922741
-0.0094676539 -0.12867498 0.2248435
0.0086405035 0.53706169 -0.74735403
0.0031740619 -0.28166771 0.20422029
0.0093173264 -0.4947567 -0.32055664
0.0034722805 0.69756031 0.15027761
0.0042009973 0.045655251 0.72125244
-0.0030727005 -0.67452812 0.78085756
-0.0017579985 -0.82924271 -0.6867528
0.0065737818 0.78204489 -0.26724052
0.00055163383 -0.52866936 -0.82918835
-0.00064064027 0.52456522 -0.95786333
0.0016077996 -0.61138439 -0.42080164
-0.0058657406 -0.29397821 -0.70246935
-0.0038235378 0.63775444 0.80277395
-0.0070290994 0.98498297 -0.49966574
-0.0055263233 -0.5949173 -0.45401001
0.0016862011 -0.90218735 0.87146187
0.0094947815 0.92201281 0.042219162
0.0026272535 -0.42060852 0.82426405
-4.5151712e-05 -0.36544514 0.29559469
-0.0083370348 -0.42950916 0.82015991
0.0020843316 -0.26872921 0.208776
-0.0021236849 -0.85530281 -0.085202217
-0.0091483733 0.76234341 0.5525527
-0.001120634 0.05943346 -0.46246433
-0.0061172866 -0.49319839 0.94261837
0.0093426136 -0.32457829 0.040431023
-0.0019427681 0.62489986 0.96244431
-0.0015205764 0.88762522 0.54183578
0.0067220642 0.88311005 0.17639065
0.0096780108 0.049406528 -0.25311852
-0.0021203898 0.25783968 -0.52184725
-3.2629967e-05 0.045471668 0.62284994
-0.00088464736 -0.86936569 -0.61480665
0.0046408796 -0.9814291 -0.55537271
1.6236305e-05 0.40684223 0.95142889
0.0094424197 -0.65889645 0.62685061
0.0098467302 -0.85317326 -0.74824905
-0.00052882673 0.9947691 0.13937616
0.0048895311 -0.3330245 -0.97751331
0.0066534374 0.63477659 -0.92810678
0.0041222572 0.42273808 -0.67026663
-0.0010962152 0.41947508 -0.62479496
0.005132284 0.33101034 0.50583935
-0.0010157824 0.7950983 -0.47558975
-0.0065695094 0.79672194 -0.068747044
0.0029447793 -0.25903606 -0.72764349
0.0092132902 0.72563744 0.41918373
0.0017307997 0.67275476 -0.58604717
0.0031245614 -0.83829165 -0.9190712
-0.0066505717 -0.17294788 -0.28429461
0.0040683653 0.23927784 0.13844347
-0.0026343011 0.12965631 0.55791903
-0.0088822506 0.64288473 0.88892937
-0.0038238573 0.54130697 -0.31597185
-0.0085797552 -0.11564398 0.48075008
-0.0092672249 0.17883444 0.2217145
0.0034563446 -0.89983654 0.94735193
0.0076481821 -0.72675657 -0.3798933
0.0017877102 -0.41430044 0.78181505
-0.0074030017 0.92064285 0.60886765
0.009754057 -0.67252064 0.84814548
-0.0088615082 -0.93595076 0.97780228
-0.0032823181 0.17582417 -0.37931299
0.0056069805 -0.20656157 0.16199398
0.0024472617 0.93546295 0.046350479
0.0072547626 0.0087409019 0.22518492
0.0094719073 0.35437536 -0.67465162
-0.0010545731 -0.88080645 0.5985918
-0.0048535015 -0.70203543 0.18429136
0.0029646491 0.55766487 -0.89506578
0.0090533253 -0.46692944 0.43241358
-0.0024652148 0.64691973 -0.50353718
0.0073128082 0.31868839 -0.32771301
0.003519678 0.87938643 -0.53427458
0.0051396228 -0.87588739 0.40118885
0.0056031276 -0.15041113 0.40992975
0.0078549767 0.79678011 0.76430511
0.0011084605 0.6913228 -0.11650133
0.0070943786 0.20597267 -0.81853676
0.0089372918 0.50243807 -0.26087189
-1.3360977e-05 -0.59222937 -0.72780132
0.0043107746 -0.83875084 -0.080881119
-0.00072459219 -0.10747004 0.23780727
-0.0040017222 0.24449825 -0.8828063
-0.0093444632 0.75846052 0.2413063
-0.0053325747 -0.68122673 0.090895176
-0.0012332774 0.10427094 0.88767529
0.0064097736 0.21511698 -0.42100143
0.0052447603 0.92455482 -0.21502876
-0.002940607 -0.18171597 0.28740931
-0.005549321 -0.18305206 -0.30481958
0.0071726656 0.24802589 0.85642958
0.0063638543 0.17556667 0.74896002
0.0087419273 -0.22460556 0.99345827
-8.6135864e-05 0.8409481 -0.24808121
0.0023269271 0.30769062 -0.92930794
0.0032358838 0.18436289 -0.825037
-0.0078873634 0.82534027 -0.60992002
0.0079026222 -0.65018368 0.3146348
0.0057523395 -0.94424391 0.13291883
0.0086264322 0.50082397 -0.050132751
0.0055782367 -0.78190947 0.19789314
-0.005857463 -0.14552355 0.37345982
0.0016321373 0.72866917 0.14885426
-0.0084332796 0.72005606 0.98980284
0.0090859076 0.95274878 -0.70250654
-0.00020717144 -0.72366285 -0.51814318
-0.0084575415 0.48760128 0.30719709
0.0054432582 -0.7221365 -0.34298611
0.0085896067 -0.14690256 0.71276999
0.009918795 0.71574116 -0.78640604
0.0094174668 -0.72643518 0.43168449
-0.0086036017 0.68781853 0.28616095
-0.0048690033 0.85103226 -0.98516941
-0.003380456 0.007704258 -0.26511335
0.0065175723 0.91629505 0.68763542
-0.00050749304 0.89557791 -0.036026955
-0.0056889248 0.049823761 0.45157433
-0.0026169491 0.59414959 -0.27056217
-0.0060468102 -0.54688978 -0.41746426
0.0010808897 0.44499016 0.2982769
-0.0067831706 -0.61326313 -0.42815828
-0.0024663256 0.5263772 0.25966072
0.00039528846 0.039476871 -0.88930702
-0.0094564054 -0.29856873 -0.88160229
0.0078924606 0.35318851 0.034692764
-0.0052311849 0.30243969 0.93027115
-0.0055914545 -0.26645279 0.98009491
-0.0010757112 -0.5281477 -0.42575502
-0.0037813282 0.86717129 -0.97264481
-0.0079559712 0.97526026 -0.52765465
-0.0049732015 0.29694319 0.8590827
-0.0092547843 0.050311089 -0.6145401
-0.0066581774 0.089839935 -0.57506323
0.004448757 -0.85580063 -0.87363148
-0.0043672659 -0.066554546 -0.52044296
-0.0040203379 -0.58967304 -0.21800327
0.0052823736 0.85118198 -0.48445559
-0.0049166726 0.74361086 0.98739672
-0.0091742231 0.36547804 -0.14543152
0.001099329 -0.43011904 0.82982874
-0.0041772127 -0.92743921 -0.8732276
0.004413614 0.14708281 -0.82291651
-0.0017317868 -0.51873493 -0.73307657
-0.0074824188 -0.073859215 0.4111228
0.0037812663 -0.51058578 0.34456825
-0.0014231587 -0.91261911 -0.24510479
-0.0036031913 -0.38438177 0.60607719
-0.0084477477 -0.87604904 -0.65031147
0.0014262247 0.20652866 -0.28483343
-2.8090477e-05 0.31646204 -0.71495199
0.0082701966 -0.10125923 0.3576088
-0.00046207904 0.3401022 0.5046916
-0.0086912438 0.16692352 -0.014042854
0.0039779902 -0.58131838 -0.087902069
0.0080892183 -0.20319128 -0.59848738
-0.0084650991 -0.34550714 0.48889351
0.0090838578 -0.70582628 0.10451174
-0.0048553706 0.44939947 -0.77153683
0.0086415149 0.59202194 -0.56500816
0.0057931854 0.58921289 -0.24854612
-0.0013563347 -0.58376741 -0.34980536
0.0022197533 -0.62997484 -0.0097031593
0.0072666742 0.50090075 0.15722036
0.0071262456 0.89870024 -0.42409754
0.0062472248 -0.29237795 -0.62728882
0.00026235104 0.86111259 -0.97279596
0.0051512863 -0.23050165 0.32137775
0.0061964081 -0.7160387 0.77077723
-0.00151896 0.14811325 -0.63720083
-0.0071690418 0.72743177 -0.047987938
-0.0096544977 0.59179831 -0.63175488
0.0068474482 0.81377363 0.73827028
0.0067504216 -0.45955896 -0.76082897
0.0083226254 0.25306559 0.13787127
0.0040816497 0.87778854 -0.15450621
-0.0021912383 0.90402365 0.70660639
0.0080808019 -0.58084726 0.47610474
-0.0087054158 0.038793564 -0.23993397
-0.00099764345 -0.11310244 -0.091820717
-0.0073696468 -0.8300066 0.63561106
-0.0078495266 0.20454359 -0.77259064
0.005832925 0.8892889 0.041183472
-0.0067843725 -0.43566895 -0.41837549
0.0056073428 0.39659357 -0.16530943
0.0069860555 0.80475903 0.71247911
0.0054409932 0.58563519 -0.38349724
-0.0074929427 -0.60628414 -0.9643445
-0.0027318955 0.52317429 -0.92555094
-0.0051312302 0.42340994 0.96134663
-0.0060494374 -0.31355476 0.1313405
0.00030667783 0.90149307 0.33588409
-0.0074192286 -0.51521444 -0.774827
-0.007007394 0.8063488 0.78950405
0.0088088559 -0.63291693 -0.8139019
0.0071557616 0.06568861 -0.0091428757
-0.005719447 0.60978842 0.57649231
-0.0095544197 -0.13950586 -0.029791832
0.00080214022 -0.41269493 0.49338245
-0.0084533691 -0.92581797 0.91679287
0.0011601018 0.46923828 0.60323811
0.0024735068 0.49990606 -0.49526882
0.005832348 -0.24201632 0.98951721
-0.0019159174 -0.9427557 -0.20413399
0.0059791231 -0.061870098 -0.83705091
-0.0021598958 0.65370607 -0.7713623
-0.0022513247 0.08176136 -0.16157389
0.0035136032 -0.87368011 -0.30107927
0.0032156848 -0.79346609 -0.7137742
0.008149514 0.36119699 0.36040783
-0.0026825571 0.47720718 0.82964611
0.0033498239 0.72455788 -0.67044735
-0.0016028595 -0.69220686 -0.91246367
0.0082923127 -0.8837986 0.14478064
0.0062509729 -0.28588629 0.082911015
-0.0021195365 -0.5018754 0.73661709
-0.0098331599 -0.72700787 0.81837893
0.0085511068 -0.37564754 -0.055301189
0.0055403137 -0.054078579 -0.84876728
-0.0015974283 0.76087284 -0.48757029
0.00200665 0.49261713 -0.010362625
-0.0096968887 0.82759953 0.71419525
0.0035986376 0.66731358 0.021988392
-0.0055259992 -0.50345516 -0.86181021
-0.004078188 0.12164211 0.85230398
-0.0032490778 -0.090311527 0.35042858
0.004117093 0.926373 -0.37657928
-0.0076991175 -0.21851635 -0.75222635
-0.0082521299 0.33551502 -0.80630493
0.0032601976 0.17577219 -0.045432091
-0.0016155004 0.37643719 0.44718504
-0.0017191267 -0.59325171 -0.72521544
0.0054228259 -0.23338747 -0.057901382
0.0056427144 -0.78598738 -0.56135654
-0.0029753875 0.80619383 -0.43971395
0.005547652 0.48128605 -0.53002548
0.0090519376 0.89299583 0.39634752
0.0052861501 0.12308407 0.17783117
-0.0022361137 -0.70212841 0.5133462
0.0097008375 -0.37610865 0.68911839
0.009246516 -0.53765869 -0.93444443
-0.0062816334 -0.70957136 0.47230434
0.0064662122 -0.1672883 0.23891687
0.0058871983 0.39698315 -0.5470705
0.00027363776 0.099444389 0.2591238
-0.0041235019 0.65421009 0.74040985
-0.009423757 -0.4405961 -0.36659431
-0.0054602767 0.088018894 -0.24350977
-0.0036819649 -0.13559246 -0.94563818
0.0014515019 0.83449125 0.67825317
0.0083426861 -0.24085712 0.14059496
-0.0010017538 -0.86902046 -0.5689764
0.0037212896 -0.22239876 -0.73626471
0.0061104582 0.36632109 -0.33928156
0.00063975336 0.39368486 -0.23983669
0.0032309913 -0.018665314 0.4143734
-0.0093649058 -0.9610405 -0.026222706
0.0069691516 0.49293184 0.061796665
0.0045340536 0.12473536 -0.073795795
-0.0049223281 0.26988554 0.76069593
0.0018602085 -0.89584541 0.51983881
0.003266158 -0.99602079 -0.34918118
-0.0024236059 -0.62389183 -0.57157993
-0.0097862482 -0.012845993 -0.20525885
0.0068209362 0.051129341 0.18842649
0.0044225692 0.37422895 0.16976118
0.0085663032 -0.56226158 -0.79127932
0.0083040809 0.13465357 -0.29834747
0.0089220479 0.58805943 -0.17361164
0.0081840893 0.095826626 0.096273899
-0.0042089508 0.28184748 -0.79957151
0.00098944188 0.60846329 0.20440769
-0.0025023699 0.36610317 -0.41948414
-0.0082181692 -0.61252165 -0.43233013
0.009729242 0.069571972 -0.38120031
-0.0083864927 0.51182938 -0.0069713593
-0.0066888761 -0.6315403 -0.56923294
0.0053983307 0.1988678 -0.43457937
0.0024148608 -0.90892744 0.15348005
0.00067874434 -0.090517998 0.24930716
0.0016414833 -0.5114131 0.53115463
-0.0063542272 -0.41246891 -0.8603816
-0.0043101502 -0.6627059 -0.49427843
-0.0085049868 0.51547718 0.89319992
0.0071717119 -0.51159811 0.96277189
0.0033597087 0.64975262 -0.52539873
0.0032899952 -0.019134998 0.84306145
-0.0024023342 0.52069855 -0.95807076
-0.0067481231 0.76218462 0.13300228
-0.0052133226 0.83005905 0.042484283
-0.002720251 0.99420738 -0.46892881
0.0025913001 0.35878468 -0.88139725
-0.0060125161 -0.072229862 0.45589685
0.0090446994 -0.92272854 0.97137451
-0.0020233011 -0.20555735 0.4597764
0.0076044179 0.13041401 -0.89047098
0.0023504354 0.45941353 -0.9096055
-0.0092189498 0.21918058 -0.38890696
0.0012003422 -0.45563173 0.37327766
0.002530365 -0.976964 -0.79666328
0.0029552078 0.75101137 0.1975441
-0.0017340756 -0.98985863 0.55632925
0.0094519518 0.40888977 0.48409939
-0.0059890794 -0.68664026 -0.43862915
0.0037246656 -0.88897038 -0.6441865
0.0083224298 -0.12852859 -0.51377249
-0.00058227539 0.10651493 -0.054358482
-0.0096783303 -0.8153801 0.1648221
0.0064325999 -0.6953454 -0.29080963
-0.009834623 -0.4423089 0.73222637
0.0021987439 -0.14678764 -0.51676226
0.004174185 -0.3201952 0.49337912
0.0097374776 0.625 0.90226889
-0.0054215286 0.026092052 0.21562862
-0.0098078204 0.39855909 -0.67334175
0.0037503196 -0.76919794 -0.80186987
-0.0013874054 -0.82742548 -0.69535494
-0.0019309903 0.20474148 0.48926544
-0.00028276921 0.84800148 -0.20607996
-0.0031908655 -0.13546085 -0.64838886
0.0041314028 0.084413528 -0.79517651
-0.0010362196 0.50183249 0.8846283
0.0038975764 -0.52441978 -0.4903717
-0.0070797349 0.93342781 -0.46427917
-0.0049234438 -0.047354221 -0.065720081
0.0083431387 0.32767773 -0.83491802
0.00032444001 0.18893766 0.33765697
-0.0066291047 -0.0041613579 0.54239845
-0.0017364502 -0.032437801 -0.60959959
-0.0037972499 -0.35152435 -0.74506044
0.0097188614 0.061615944 -0.66064644
0.0017671012 -0.042005539 -0.15881395
-0.0093866158 0.34775209 -0.68323374
0.0057096719 -0.36022139 0.25019407
0.0010668802 -0.85256577 0.20284033
0.0004096794 -0.018251419 0.53051805
-0.0079395007 0.014192581 0.71945572
-0.0045629311 -0.64871788 0.71529484
0.00086105824 -0.8223629 0.68285704
-0.0052349376 0.79791212 0.33133268
0.007314458 -0.23020124 0.3929491
0.00070799352 -0.053491116 0.35094357
-0.00088014605 -0.99215269 0.69869566
-0.0077124787 -0.42118549 0.33847427
-0.0052105379 -0.31449747 -0.51409101
-0.0031821346 -0.27352953 -0.53234243
0.0021230506 0.93252087 -0.51814985
0.0093176076 0.47622776 0.83313274
-0.0035294436 0.56233358 0.010769844
0.0032991266 0.038839817 0.80868244
0.0066124583 0.77028608 0.5784812
-0.0094580511 0.84108543 0.52499008
-0.0059486153 0.75307131 -0.46716261
0.0010383416 -0.018176556 -0.88834763
0.0044230842 -0.53923035 0.7971549
-0.0007178259 -0.85744333 0.52362585
-0.0060412502 -0.64513826 -0.54385328
0.0087772561 0.28662252 -0.067625523
-0.0028914167 -0.066321373 0.49470854
-0.0027837181 0.26359129 0.53354836
0.0053031063 0.92483711 -0.69616556
-0.0089120818 -0.02096796 0.14492035
-0.0036621809 -0.61582947 0.89799166
-0.0083338022 -0.51199532 0.8798151
0.0027827215 -0.069686413 0.34058475
-0.0092457291 -0.141469 -0.51685858
-0.0040094708 -0.74559355 0.83800316
-0.009448004 0.13213205 -0.87537384
0.0098757455 -0.1570096 -0.94169521
-0.0051771686 -0.43538141 -0.67810392
0.00015831471 0.094929695 0.24673367
-0.0068033361 -0.79627848 0.22576571
-0.0053541325 0.83750391 -0.39006329
0.0036257838 0.0041236877 -0.9020586
-0.0075760651 0.28239584 -0.97174501
-0.0041702176 -0.6421771 0.88678646
-0.0093387989 0.95687628 0.14119291
-0.00095876696 0.012075901 0.27332497
-0.0097125052 0.99965048 0.11631536
0.00087054254 0.48193359 -0.31906605
-0.005910492 0.49776554 -0.22413635
-0.0034431552 -0.18256807 0.97958565
-0.0011854982 -0.71798134 -0.18291044
-0.0050861309 -0.35540295 -0.17878675
0.0058932877 0.88699055 0.10360909
-0.0038241625 0.4699688 -0.53856802
0.0050437022 -0.46391106 0.41830826
0.0064556315 -0.55978727 0.43038464
0.0091888811 0.46896219 -0.56996489
-0.0096479654 0.55601692 -0.088030815
0.0071613789 -0.035032272 0.40973473
0.0049200151 -0.3793478 0.22716665
-0.0052841282 -0.49789762 -0.49081469
-0.0071132327 0.99348974 -0.84621763
-0.0089011006 -0.41718149 0.040772915
-0.0078650089 -0.79959774 0.51074171
0.0067493152 -0.29522705 0.046831131
-0.0090676025 0.35033607 -0.51295614
-0.0047637559 -0.73077536 -0.04399395
0.0095365997 0.3044281 0.51202297
0.0086562922 -0.97943401 0.4769907
-0.0072463606 -0.487432 0.097642899
-0.0049746945 0.98415518 -0.40025425
-0.0098828413 0.27283239 0.59323549
0.0016549826 -0.61727762 0.176054
0.0020627116 0.59622192 -0.62354374
0.0071701286 -0.72884655 -0.91877079
0.00763844 0.36439323 -0.56843424
0.0025088787 -0.11198187 0.70079041
0.002068944 0.84167814 -0.99478149
0.0071891737 -0.29269266 0.025784969
-0.0080409143 0.98267126 -0.46164703
-0.0070644855 0.48520184 0.52250814
0.0089329723 -0.50308228 0.79534054
-0.0051346733 -0.33758402 0.17806339
-0.003374133 -0.13131285 0.77428532
-0.0096095661 0.58570004 0.045438766
0.0012027264 -0.65045547 0.409832
-0.004481616 -0.3995676 0.29785013
0.0025262879 -0.19267321 -0.86047173
-0.0074215219 0.52624464 0.84683561
-0.0071636722 -0.27784681 -0.17049313
0.0082198568 -0.98429537 0.31470871
-0.0065550613 -0.090997696 -0.18837357
0.0013983488 -0.60446501 -0.52595758
0.0031789828 -0.94187784 -0.65727043
-0.0090781637 0.097165585 -0.07156992
-0.008623776 0.21743822 -0.72202539
-0.0045254566 -0.2307229 0.878407
-0.0015469503 0.021905899 0.68573427
0.009848332 -0.72024632 -0.78802109
-0.0016833066 0.56338644 0.9341321
-0.0033882379 -0.61462784 -0.050163269
-0.00024114609 0.7298665 -0.14116096
-0.0021248818 0.86970139 -0.7456255
-0.007384453 -0.81240034 0.31249666
0.0060428428 0.27978325 0.40966225
0.0053271437 -0.58259439 0.62710047
-0.0018931102 0.96485996 0.39637756
0.0068909647 0.81016493 0.41828394
-0.0062516928 -0.20500135 -0.30196238
0.0058680964 -0.37333202 0.26142454
-0.0047905827 -0.71215582 -0.3532033
-0.0052922154 -0.73627043 0.37666321
-0.0067038201 -0.94875813 -0.75363541
0.0058399248 0.31279659 0.43396425
0.0089648915 0.91708088 0.7137475
-0.0069384859 -0.55020428 0.13115311
-0.00066748145 -0.7395153 -0.90398645
0.0032962989 -0.050418854 -0.093821526
0.0074791382 -0.67558813 -0.29882288
0.0044595147 -0.088778496 -0.6721549
0.00707376 -0.56783676 0.61568975
0.0035417317 0.90294218 -0.12058067
0.0073083639 0.23256016 0.9306612
-0.00022798538 0.81655264 -0.75654221
0.0041116569 -0.28695822 0.16053915
-0.0087508634 -0.98080683 -0.38966513
-0.0074393321 0.95244503 0.87081957
0.0035208035 -0.71792507 0.82040119
0.0025825929 0.029988766 0.14481306
-0.00040563583 0.4759407 0.056035042
-0.0071271802 -0.81668329 -0.51180172
-0.00097028253 -0.46251011 0.39114046
-0.0021760892 0.26832676 0.62370062
0.0071305274 0.24552822 -0.55974674
-0.00043489455 0.65669394 -0.84670496
0.0011704969 -0.21839237 0.17248821
-0.0027261544 -0.9623251 -0.87506628
0.005982046 -0.61024475 0.40700865
-0.0058139418 -0.35198545 0.43699789
-0.0043658111 -0.39254856 0.91293859
-0.0038054609 0.89473343 0.096255302
-0.0089234738 0.79770517 -0.36625433
-0.0050120689 0.58009624 -0.09792757
0.0012249422 -0.70685101 0.14760065
-0.004372525 -0.75033998 0.80429459
0.0071604298 -0.63329029 0.58590269
0.0088853119 -0.90590525 -0.37642241
0.00013464928 -0.30770063 -0.98666716
0.0042047407 -0.88909483 0.66134787
0.0085747195 0.67432404 0.2687993
-0.0022958945 0.29377842 -0.83646727
-0.0013333416 -0.59856892 -0.038762093
-0.0049958848 0.90022421 0.54133415
-0.0059751607 -0.97728157 -0.16551638
-0.0044991542 0.58546638 -0.91585636
0.0035437965 -0.69849062 0.45085335
0.0094028236 0.19004059 -0.4550519
0.0056385994 0.20350599 -0.76275253
-0.0042280722 0.62398005 0.34815264
0.0023854065 -0.51854801 -0.97752285
0.0050733997 -0.74813747 -0.68374443
-0.003291273 -0.88147163 0.71768665
-0.0036788941 0.61894035 -0.38208914
0.0017344522 0.021424294 0.64062977
7.9288482e-05 -0.42849064 -0.77390385
-0.0090792747 -0.074110985 0.52760553
-0.0045707417 0.86617136 0.71764612
-0.0091212559 -0.5699687 0.92115211
0.0032512187 -0.99277592 -0.45486784
0.0067327498 -0.75423479 -0.97341585
-0.0030424786 -0.24689484 0.27844667
-0.0098799225 -0.57602167 -0.60302448
-0.0027030564 -0.94391108 0.015915871
-0.0065239477 -0.77046585 0.037340164
-0.00011765003 -0.762537 -0.39115047
-0.0078566885 0.32953548 -0.46526146
-0.0025806332 -0.1275382 0.4009099
0.0045958329 0.96033621 -0.1690588
-0.006192646 -0.71454191 0.83816576
0.00925868 -0.041266918 0.083930969
-0.00047547818 -0.34551477 -0.16296387
0.0023089934 0.66649294 -0.73898554
-0.0037212514 0.39618731 0.31710386
-0.0035620928 -0.25620699 -0.45336199
-0.0031886911 -0.26797199 0.78410149
-0.007100191 0.94635963 -0.88636303
0.0082471939 0.68829632 0.98609877
-0.0077437018 -0.8521204 -0.053565025
-0.0094342902 0.52861547 -0.76810646
-0.0010526323 -0.54551649 -0.80937338
-0.00021332264 -0.59306431 0.84511232
-0.0018429565 -0.36216497 -0.48839474
-0.0092328116 -0.73429012 -0.092206955
-0.0060617733 0.9095006 -0.34841394
0.0094046118 0.59063196 -0.61638594
-0.0027543735 -0.11938715 0.3299737
0.0083819963 0.70533228 -0.98172951
-0.0017570114 -0.069037914 0.16615009
-0.0022926617 0.98753357 0.69476557
-0.0099737262 0.88227034 0.14924908
0.0019325448 0.86093855 -0.44381475
-0.0096163321 0.67664289 -0.80597973
0.0054997206 -0.2466383 0.45973063
0.0045776512 -0.85281515 -0.63076878
0.0010935116 0.087646008 -0.040136814
-0.0050703431 -0.18779135 -0.15952396
-0.001770606 0.65040827 0.54580879
0.0084120985 0.47470713 0.47677088
-0.0099263955 0.24544144 -0.53569555
-0.0029787398 -0.75193119 0.34657526
-0.0014862441 -0.55867672 -0.79248619
-0.0059243916 0.47969007 -0.1158433
0.0060158111 -0.97033739 -0.36248159
-0.0093868831 -0.51257229 0.78470325
0.0043054344 -0.40322065 0.87234926
0.003904066 -0.91025496 0.68455791
0.0023088313 0.91268444 -0.66503334
0.0077669192 -0.24610519 -0.19032621
-0.0074653719 0.76125526 0.055115223
0.007177677 0.46338129 -0.69681549
-0.0093565704 0.31475687 0.74450779
0.0027185678 -0.2776823 -0.77580166
0.0015601349 0.32389927 0.25386095
-0.0020646811 -0.61478901 -0.25871134
0.0057823565 -0.18424559 -0.66193199
-0.0054941513 0.2061615 0.42781305
0.0013514328 0.43704462 -0.65950203
-0.0052989004 -0.78626347 -0.90560722
-0.0072021629 0.46719933 -0.14435196
-0.0066510057 -0.81503296 0.31902933
0.0063808393 0.24931002 0.63378668
-0.0061740829 0.5211668 0.35610437
0.0060679005 0.67718029 0.68000364
0.0086065102 0.47071266 0.065215111
0.0060194014 -0.95105171 -0.11903048
-0.00059991836 0.49953318 0.087131023
0.0036782168 0.63467646 0.52417564
-0.0029168034 0.1047864 -0.26208782
0.0080271242 -0.6154294 0.20511198
0.006583605 0.71947002 -0.60992098
0.0097738979 -0.64244604 -0.36061049
-0.0038882352 0.74014568 0.16055632
-0.00032718657 -0.65306377 0.83773708
0.0064728498 0.20758724 -0.69155025
0.0071250009 0.8095274 0.35739803
0.0059347008 0.74953604 0.85693121
0.0068060113 -0.88264227 -0.50839186
-0.0079522273 0.82567739 -0.40360546
0.0094268946 -0.37161016 0.98096514
-0.0085219862 0.28675032 -0.29956484
0.0053788088 -0.73585987 -0.94201088
0.0017727041 0.8753171 -0.20186472
0.0033782674 0.84259844 -0.85492849
-0.0082443617 -0.51011658 -0.64734125
0.0048401356 0.202384 0.16218662
0.0084141158 0.79585409 0.91172266
-0.0030165673 -0.52354479 0.029080391
-0.0081004854 0.68123245 0.85475779
0.0078634592 -0.37607765 0.48314762
-0.0023268843 0.77172375 0.76989794
-0.0053225327 -0.69039536 0.034038067
0.0052573634 -0.51312494 0.90935516
0.0032387162 -0.17529774 -0.2480464
-0.005310569 -0.99973392 -0.7581625
0.0082160188 -0.51571989 -0.5557785
0.0098378845 0.3256917 0.24007559
-0.0010448885 0.024034977 -0.2834692
-0.00075408461 -0.7860136 0.39776373
0.0077934931 0.00033283234 0.021686077
-0.0073750303 -0.23235559 0.79340982
0.00032394886 -0.76460886 0.10301495
0.00066433428 -0.23887253 -0.41011
0.0097578857 0.084999084 -0.58540773
0.0072774268 -0.4460578 0.41485882
-0.00030419827 0.37554455 -0.10086107
-0.0058619832 -0.64066696 0.22483063
-0.0034612275 -0.74515533 0.24886608
-0.0062959194 -0.82056379 -0.53714752
-0.0023182821 -0.041213989 -0.53681469
-0.0021014214 -0.77871704 -0.76917028
0.0058326814 -0.74632168 0.46622133
0.0068628313 -0.67988825 0.2273488
0.0027617312 0.29590034 0.31234837
-0.0030923414 -0.97635698 -0.13370943
0.0010562468 0.99322319 0.24183512
4.7636033e-05 0.40702486 -0.39883137
0.0022959423 0.060902119 0.8560133
0.0047846031 -0.56868935 0.035449505
-0.00058686733 -0.80051756 -0.0057644844
-0.0059550144 0.98934078 -0.78448105
0.0063532875 -0.42739105 0.46919727
-0.0089844987 0.25889206 -0.21069098
-0.0067110108 0.53506517 0.08520937
-0.0035875272 0.22583103 -0.89114714
-0.0049246168 0.33145571 0.10207605
-0.0025062656 0.33621931 0.50910139
-0.0064945794 0.56581402 0.57000351
0.0020655536 -0.95572567 0.0013141632
0.0024200536 0.9855876 -0.79920292
0.0023624087 0.39008665 0.19013786
-0.0054824017 -0.97458458 -0.23725319
-0.00079042913 0.12696552 0.02163887
-0.0028973389 -0.54413557 0.55670404
-0.0020452405 -0.90288782 0.78253555
0.0090432884 0.6046505 -0.88600874
-0.0099359509 0.35402393 -0.54978895
-0.0048449375 -0.29543352 0.016025066
0.00085510255 -0.088878155 -0.9397006
0.00086824415 0.15312719 0.04588747
-0.0071237851 0.38936853 0.43597412
-0.0052224062 -0.15887165 -0.53861046
-0.0075949384 -0.23791409 -0.41164494
-0.0073785498 -0.52764797 -0.95578051
-0.0018115044 -0.73217201 0.14133167
0.0060138511 0.17215681 0.74598217
-0.0028462363 -0.82143784 -0.89999342
-0.0083441259 0.69406843 0.80457306
-0.0081838751 0.77957869 0.7156949
0.0024191237 0.86640358 0.86882257
0.0028779984 0.15402508 -0.74180889
0.0072377394 -0.36821508 -0.90068054
0.0018516349 0.87229109 0.86140537
-0.0022648145 0.13443661 0.33375788
0.008177381 -0.046713829 -0.39841413
0.0095907021 0.55467129 -0.22625685
-0.0029494762 0.27004766 0.95230532
0.0080505898 -0.56436443 -0.35362625
-0.0039036798 0.61724806 0.42595291
0.0032532739 0.85916042 -0.70764351
-0.0080585005 -0.85303974 -0.55361843
0.0045234109 -0.12926579 -0.92183352
-0.0044833948 0.055897713 -0.04954195
0.0041306638 -0.17058372 0.084894657
0.0074682427 0.64715481 0.038180828
0.0034841013 -0.39377499 0.59285212
0.0012215328 -0.68872261 0.86289978
-0.0092554139 0.11633682 0.29853535
0.0072083282 -0.27403116 0.91578388
-0.0085321423 0.051296234 -0.22505569
0.0043914225 -0.75455379 0.92190504
-0.001144762 -0.30221272 0.79263926
0.0096369078 -0.7505517 0.84853745
0.009141488 -0.33748531 0.67795372
0.0099904351 0.40933895 -0.67489147
-0.0096277567 0.75774908 0.93133354
-0.0036992359 0.87990284 0.24261141
0.0049297619 -0.045638561 0.35894823
0.0079151206 0.67519426 0.084917068
-0.0029270411 -0.17802 0.13621378
-0.005177598 0.26112223 -0.61834002
0.0040414524 0.1466465 -0.92055225
-0.0080321506 -0.88966274 0.32889605
0.00045322417 0.024486065 -0.0085892677
0.0072327615 -0.97647047 0.40074968
0.00048385144 0.060753822 -0.84150124
0.0097971866 -0.30916977 0.038401604
-0.007776699 0.18380642 -0.0072364807
-0.004187217 0.97531843 0.66795778
-0.0033380412 0.68261433 0.48993826
-0.0019759035 0.164855 0.75106049
-0.008159304 0.56900024 0.89770699
0.0026351737 -0.23421478 0.0080442429
0.005924134 -0.18889236 0.032530308
0.0058382414 0.53438425 -0.94394016
0.0098457383 0.58276939 -0.88318634
0.0014307308 -0.43751192 0.80764389
0.0018147469 0.78481865 0.99145079
0.0017423821 0.36609697 -0.033230782
0.0084219649 0.032292843 0.64938402
-0.0066786529 -0.16529751 0.81423903
0.00083195209 -0.9812274 -0.61676073
0.0098090265 -0.71771002 -0.85097504
0.0098894695 -0.12529612 0.9601326
-0.0097852228 0.45852804 -0.50548315
0.00077537535 -0.55689764 0.077286243
-0.0080564832 -0.41382456 -0.3602252
1.9955634e-05 -0.23234987 0.42459345
0.0099344635 -0.058111191 0.79069042
0.0096021602 0.78408527 0.82298374
-0.0039039992 0.11622 0.65768623
0.0042383908 0.19941521 -0.32354116
-0.0019292164 -0.81968212 0.95874929
0.009561033 0.16926527 0.83345318
-0.00083763601 -0.80925703 -0.70801878
-0.0058924677 -0.73171949 0.73508358
-0.0051196003 0.46263218 0.32125902
-0.0087218527 0.46462822 0.088909626
-0.0044759177 -0.54192543 0.030798435
0.0034309863 0.41829062 0.81488371
-0.008339176 0.027890682 0.93110371
-0.0017623091 0.45172977 -0.86948109
-0.0049977209 0.25880861 0.31083727
0.0045897723 -0.78508806 0.48010254
-0.0070756958 -0.86885166 -0.32915449
0.0058441209 0.54190207 0.93912601
-0.0068050432 0.029942036 -0.59824133
-0.0035924483 -0.84224319 -0.13361311
-0.0027033519 0.71016502 -0.67553854
-0.0023953677 -0.94673634 -0.25724745
0.0057534697 0.21934652 -0.22935677
-0.0049354937 0.043115616 0.22237349
0.0063696955 -0.45665646 0.4811821
0.009478068 0.0023212433 -0.30390596
-0.0057209064 -0.70524836 0.82724285
-0.0090124514 -0.12083626 -0.63085508
0.00037881374 -0.8013401 -0.60091305
-0.0056035994 0.83941507 0.55684376
-0.0069397306 0.56907988 -0.73299122
0.0063048839 0.32954311 0.32027245
0.0037324096 0.90489006 0.53961897
0.0014388466 0.41134071 0.58273458
0.0036625816 -0.95168972 0.12607861
0.0084744021 -0.0038824081 0.12839985
0.0054353429 -0.57597303 -0.57684851
-0.0062922286 0.52278233 -0.69768429
0.0073992205 0.5606637 0.50097561
0.00139009 0.00030374527 -0.65960932
0.0069585275 -0.69366932 -0.090529442
-0.00037138461 -0.063180923 0.23901367
0.0028313445 0.3100605 -0.85609627
0.0082275346 0.45394516 -0.44475555
-0.0059451149 0.8202033 0.60355473
-0.004684329 -0.33235645 0.59967232
-0.0034003304 0.21117783 0.02369976
-0.0091688158 -0.41804457 0.54648209
0.0038543416 0.32187748 -0.89285421
0.0088640973 0.46088696 -0.89255047
0.0022680045 -0.84326029 0.41378021
0.00136271 -0.88039827 0.35059929
0.0037528467 -0.59726381 0.66065979
-0.0048081158 0.22548962 -0.88539505
-0.0092556719 -0.36902189 -0.065191746
-0.0032201195 -0.8374548 -0.3975482
0.0027766037 0.82251215 -0.1863699
0.0030136013 -0.094368935 -0.60441446
0.0084784217 0.29106522 -0.28253698
-0.00045011996 -0.82252455 0.17834997
-0.0093756244 -0.59572411 -0.66490984
-0.0052378224 -0.45945263 0.45469189
-0.0017318248 -0.084167957 -0.14257193
0.0048747729 -0.56497908 0.08291769
-0.0039791726 0.50945377 -0.28610373
-0.00463109 0.18744183 0.87644148
-0.008606567 0.46510267 -0.30104589
0.009529734 0.7664628 -0.39541483
0.0034855891 -0.3856945 -0.10434961
0.00066021917 -0.4307065 -0.92687416
0.0024437236 0.63173151 0.47740221
-0.0042053745 0.10794926 0.017949581
0.00034154416 -0.065233231 -0.066218376
-0.0010841751 0.42224455 -0.63119745
-0.00025499822 0.024327278 -0.1217432
-0.0031160354 -0.43878174 0.065698624
0.0056483839 0.70056152 0.5308013
0.0026379251 -0.34646511 -0.70273542
-0.0013162232 0.002093792 0.91157007
-0.0023597192 0.068116188 0.48086357
0.0083715441 0.31248856 -0.88740492
-0.006854434 -0.10804892 -0.77945518
-0.0066749384 -0.073894501 -0.84468842
-0.0073371218 -0.18231201 -0.42244387
0.0063509084 -0.20781183 -0.39811659
0.0051334761 -0.5194149 -0.83689785
0.0057904627 0.045423508 -0.13633633
-0.0089015197 0.30921602 -0.48280096
0.0040711258 0.17759371 -0.48070717
-0.0068131732 -0.05837822 -0.41259098
-0.0020045375 0.77877617 -0.10010242
0.009121418 0.093332767 -0.20815134
0.0013268661 -0.57416105 -0.28204584
-0.0071200179 0.69212723 -0.46435785
0.0086555481 -0.67278194 -0.67216921
0.004674382 -0.15943432 0.80841589
-0.0036945962 0.41961193 0.8538394
-0.0050579547 -0.47054005 -0.83694458
-0.009885964 -0.063427448 -0.65935087
0.0053069638 -0.74474478 -0.71772909
0.0011810589 -0.94519806 0.061047554
0.00018003464 -0.033056259 0.15438032
-0.001901474 0.099630356 -0.41978025
-0.0047219326 -0.61237144 0.27234697
-0.0093655065 0.25318336 -0.40043497
0.0039128019 0.72062206 -0.55986929
-0.0080030393 0.35116243 -0.14025736
0.0005353546 -0.15463305 -0.61079693
-0.0078340909 0.85677052 -0.67422438
0.0055724001 -0.61253262 0.58103132
-0.0016048908 -0.49442673 -0.36416674
-0.00099441526 -0.47642326 -0.397223
0.00054939272 -0.66657066 -0.29759264
-0.0036484099 0.86123657 -0.90996408
-0.0009249401 -0.075314045 -0.65678024
-0.0049292897 0.31596613 0.06384182
0.0094720172 -0.48433781 0.41500425
0.0080694435 -0.43080235 0.26037169
0.0019614743 0.78578854 -0.8828578
-0.0047807647 -0.65697145 0.50460958
0.0010295487 -0.81746054 0.010182858
-0.0026121186 -0.91690159 -0.46623993
-0.0065843486 -0.86196232 0.86718941
-0.0095602749 0.7731967 -0.27157402
0.0013400841 0.68070269 -0.34688807
-0.0052277185 0.1877737 -0.030921936
-0.0045893001 -0.86502457 -0.51525974
-0.00043925285 -0.058080196 -0.94606209
0.002164464 0.13806772 -0.16027355
-0.0066641141 -0.34000874 -0.81724501
-0.0016180134 -0.23705387 0.36529493
-0.0015161848 -0.49826574 -0.55160666
-0.0061785839 0.84329939 0.58643103
0.0024933147 -0.11272812 -0.64037228
-0.00022242546 0.021280289 0.04033041
-0.0036913014 -0.50149107 0.22810411
-0.0040005208 -0.96042109 -0.63692045
-0.0091531137 0.99565363 -0.69500065
0.0013862657 -0.78789997 -0.55693293
-0.00021646499 0.54568911 -0.89694166
-0.0083889151 0.38388777 0.86600447
-0.0047359657 0.23226929 0.36773872
0.0097479681 -0.38558865 -0.78896189
-0.0043877219 -0.13625717 -0.90169001
0.0092085553 -0.15849972 -0.88040924
0.009611859 -0.52762985 0.61809969
-0.0081070997 -0.92768145 -0.3423214
0.0055236961 0.15700722 0.65333271
-0.0014263057 0.29563379 -0.13456726
-0.0069956351 0.27398729 0.41112185
0.0040349532 -0.56490374 0.79500961
-0.0073050023 0.96149969 -0.97272062
-0.0036276102 -0.06370306 0.64169073
0.008482771 -0.50247526 0.50543356
-0.00053412438 0.41838074 0.34693384
-0.0093382169 -0.62043333 -0.18069553
-0.0031572198 0.56885719 0.89162302
-0.0065804338 -0.87877321 -0.95136976
-4.7106743e-05 0.97859621 -0.65573597
-0.0013927746 0.27903318 -0.3817482
0.002718444 0.6825285 -0.94665194
-0.0093314555 -0.047971725 0.014847755
0.00094133854 -0.41073275 -0.048855305
0.007358246 0.43754482 -0.55133009
-0.0075874184 0.38413239 -0.13294935
-0.0041180803 -0.54968929 -0.75338268
-0.0059250356 -0.86541128 -0.18452549
0.0029911948 0.47654533 0.93670177
-0.0065225028 0.47183514 -0.084702015
0.0069201421 0.33255768 0.19433117
0.0031026602 0.60440207 0.87685966
-0.0063638594 -0.32874346 0.82888842
-0.0062153814 -0.2346096 0.41815567
-0.00670393 0.50121498 0.85570049
0.0077827694 -0.25752687 -0.76016712
0.0064532757 -0.66933441 0.69014359
-0.0010805512 0.73816204 -0.1752677
-0.0029258013 -0.96271801 0.30127811
0.0064412165 0.3850317 0.77311325
0.0055941963 -0.92295408 -0.89432907
0.0075375126 -0.61268806 -0.28992701
-0.0036938905 0.75092602 -0.61866999
0.0045949938 0.12938833 -0.85327959
0.0087765548 -0.54100466 -0.35206413
-0.0026664401 0.23727226 -0.60959101
0.0097318934 0.88259983 0.72107458
-0.0033666706 0.77454472 -0.5407629
-0.0051193428 0.48196459 0.49651909
-0.0021065616 -0.87391376 0.88155079
0.0056245709 -0.31449366 -0.041402817
-0.0033187198 0.43925762 -0.65409088
-0.0062179901 0.069868565 0.096835613
0.00759531 0.5293684 0.22622395
-0.00093748095 -0.59297609 -0.31478071
-0.0044581224 -0.85962009 -0.07750845
0.0094459681 0.11356926 0.80509138
-0.0033432818 -0.22309732 -0.4203639
-0.0087509109 -0.7350316 0.061601162
-0.0037857199 -0.94568777 -0.8123126
0.0050297882 -0.38323069 0.87319374
0.0046157599 -0.71510267 -0.68754864
-0.0019251442 0.66309834 -0.6176796
-0.00095678808 -0.57737017 -0.088311195
0.0013054514 -0.67111826 -0.68128729
-0.0018423557 0.88306952 0.45909262
-0.0026174402 -0.17233372 0.57266235
0.0054334737 -0.50666189 0.34956503
0.0012298345 0.61824703 -0.38546658
0.0018458462 0.23967505 0.66884565
-0.0062772753 0.74265432 0.28561497
0.0024546622 -0.79576969 -0.42948771
-0.0044208192 -0.98828411 0.23361063
0.009402385 0.91603708 -0.34375954
0.0085192733 -0.95341778 0.9851222
0.0017064 0.86234665 -0.13180828
0.0062973262 0.60060263 -0.30414152
-0.0079760505 -0.85605001 -0.81080341
-0.0044804001 -0.73306608 -0.1925559
-0.008335066 -0.54848146 0.047119141
-0.0016466093 0.82379103 0.78977346
0.0012095404 -0.93074226 -0.0059957504
-0.0030853366 0.62717581 -0.99427986
-0.00074922561 -0.43258572 -0.078242302
-0.0041868212 0.41934156 0.96833992
0.0056644059 0.58998156 -0.16931295
0.0043463232 -0.78028584 0.43128967
0.0013049078 0.4221096 -0.42475986
-0.0068031214 -0.025930405 0.84217405
-0.0087286802 -0.85943651 0.29369259
-0.0082574897 0.97590256 -0.88251591
-0.0003597498 -0.90314293 0.18674183
-0.0004197073 0.7883234 0.81391764
0.0096374936 0.71340084 0.38133192
0.0088550709 0.29471922 0.80067348
-0.001461525 0.8611598 -0.60934496
-0.0031546545 -0.7042079 0.61036921
0.0011582422 -0.57371664 -0.96752119
-0.0030893565 0.7459712 -0.99345112
0.0053323843 -0.12689686 0.14711237
0.0082693147 -0.95264578 -0.87698507
-0.00055584428 -0.98862076 0.219872
0.001311574 0.96940851 -0.99180412
0.0094507504 -0.066841602 -0.27840328
-0.0067359302 0.8186655 0.016315937
0.0012708044 0.67251301 0.87747574
-0.0048226453 0.35704756 0.17326832
0.0012810469 0.47287226 -0.40044832
-0.0083941603 0.16393661 0.34552288
