# .PCD v0.7 - Point Cloud Data file format
VERSION 0.7
FIELDS x y z
SIZE 4 4 4
TYPE F F F
COUNT 1 1 1
WIDTH 1489
HEIGHT 1
VIEWPOINT 0 0 0 1 0 0 0
POINTS 1489
DATA ascii
4.952848 0.73454869 0.52424026
2.246706 0.72899812 0.99490541
1.6815913 0.80781955 0.40788952
1.969717 0.59508258 0.83335382
1.226806 0.22366524 0.2001417
3.7319815 0.9952746 0.84056729
0.014628318 0.20651281 0.43525174
4.1325641 0.11882193 0.47932583
0.1794769 0.59524345 0.29301539
2.0956969 0.24496412 0.65952742
4.5709248 0.23553368 0.39407608
2.1921263 0.68487489 0.12307422
2.1666532 0.021193149 0.93089372
4.2061009 0.41513658 0.5259763
3.37287 0.66049778 0.74964154
4.3735785 0.40689409 0.74491614
3.5764148 0.40981975 0.95142895
0.75267369 0.23633263 0.070250891
3.149303 0.272228 0.66549438
4.6143794 0.69136739 0.91045851
2.9120169 0.60555243 0.14599219
4.8823972 0.043977641 0.83086711
0.49776843 0.4773083 0.85206026
0.15223718 0.3185285 0.2671968
2.7821186 0.99310249 0.92769456
1.5303265 0.86781818 0.33458865
0.25490707 0.58310121 0.74440843
0.01205187 0.7336359 0.98074102
0.36330631 0.36349648 0.25296906
3.6907783 0.28637245 0.94433647
3.2430706 0.86877584 0.54988885
3.9730315 0.84525532 0.59386653
3.1273668 0.94480896 0.071174823
2.3876681 0.97525644 0.38970333
3.7236524 0.53168017 0.38280582
3.3621252 0.83774543 0.25062403
0.035068423 0.88872689 0.83372521
3.7571106 0.89113724 0.56736112
3.6608157 0.96379852 0.9308576
4.9256606 0.70195413 0.21723005
4.6473432 0.35056826 0.086005881
2.3967874 0.14517459 0.93126118
0.3661201 0.770648 0.87607014
0.72199428 0.24818164 0.85132658
2.6705108 0.99291205 0.38300675
4.5845399 0.66533709 0.22075221
0.83765996 0.67235076 0.10947908
0.0062860688 0.42377287 0.00061631389
2.8430917 0.155936 0.96441483
2.4973798 0.14106818 0.66636896
3.5835302 0.070536815 0.016937237
4.0135593 0.54989433 0.16211183
3.6698654 0.62311834 0.93275982
3.0502162 0.76751721 0.18094146
2.3068492 0.30161938 0.17385355
4.2218828 0.21852735 0.83919066
0.32564408 0.38605934 0.51154143
0.87303948 0.38731655 0.9353143
0.87612104 0.95593494 0.091250323
0.69819516 0.45541087 0.23231851
4.0300398 0.17211691 0.30285531
4.1147261 0.97482878 0.85274965
4.9252853 0.70880187 0.47586799
4.5890841 0.31884515 0.2433852
0.4937917 0.78021497 0.54500455
1.3630594 0.62459159 0.76353192
0.55901265 0.68972045 0.14959128
3.1167197 0.86432832 0.53690785
2.7932916 0.039552532 0.49284276
3.249543 0.17919156 0.94825363
4.4111357 0.98519957 0.12037055
0.92541212 0.80814481 0.095199354
0.18916035 0.79320186 0.80400127
2.5685003 0.71101874 0.12284639
3.7854264 0.80977708 0.90306139
1.5104492 0.082388945 0.52765298
0.32810882 0.19419147 0.21737342
1.0760652 0.81753546 0.081701741
3.7606046 0.37619373 0.12125427
1.2248182 0.026102347 0.30044582
0.96608645 0.90832943 0.2856454
1.5679392 0.093411878 0.093790166
2.043936 0.13124394 0.88699198
1.0639422 0.64494401 0.59801072
1.6781741 0.40202928 0.40778777
1.1934811 0.70411915 0.49017671
3.8317459 0.76974088 0.68436819
4.918613 0.98495394 0.50190365
0.32712182 0.73707485 0.87809741
0.93339318 0.9820385 0.90419972
2.4356222 0.17525578 0.81252921
3.8638494 0.48884362 0.90594107
4.3327999 0.89763081 0.037185021
3.76776 0.11041926 0.68212903
1.7578137 0.4460541 0.084158331
3.7967527 0.68475032 0.78827745
1.2476361 0.45109954 0.55801833
4.669477 0.43482217 0.54297227
2.1789954 0.50024652 0.28004712
1.5694823 0.68692517 0.26208559
1.0904809 0.17404965 0.43734136
0.15312694 0.94681948 0.92618495
4.6828322 0.81337953 0.82381576
4.8687572 0.56693155 0.93423504
3.2794025 0.91849428 0.38028914
3.7001944 0.67784482 0.065039456
2.6415815 0.92737204 0.51613897
0.43167326 0.86126745 0.95096117
3.1465344 0.29706654 0.4512077
4.5467701 0.61096299 0.13813286
0.85719806 0.82905924 0.31218252
3.0439048 0.85968459 0.259002
2.6748297 0.79625106 0.072381526
1.7939085 0.77000254 0.63931304
1.4650836 0.42588305 0.55780733
3.3665292 0.16592191 0.23565215
3.6917267 0.69423825 0.16302417
1.2724216 0.78057289 0.024291638
1.0272274 0.4098798 0.32135817
3.2832658 0.31923386 0.93232119
3.9739301 0.49067348 0.76138043
0.53484261 0.099454448 0.62106502
1.8298526 0.63442039 0.41731608
2.1917603 0.99320209 0.18731862
0.38832566 0.28621882 0.61320168
3.1773624 0.95952469 0.7791236
4.3556232 0.69787008 0.47336182
0.17074402 0.95235437 0.25393468
0.2922022 0.15779988 0.66381449
1.8989931 0.81445307 0.98304838
1.5605992 0.6092391 0.47372183
0.3675012 0.71620762 0.57317626
3.4728262 0.082178146 0.20759666
0.55940664 0.52053022 0.20079875
1.4959997 0.59819531 0.4870176
4.5620079 0.23366782 0.44654232
3.4576261 0.10479245 0.14441237
0.82443517 0.13894126 0.096766762
2.0941086 0.19738169 0.25456664
0.41318116 0.57718033 0.06901969
0.3284229 0.88930017 0.67825878
2.697032 0.96280038 0.39446637
0.56291342 0.65736562 0.47664452
1.6008967 0.769247 0.99717474
2.6048903 0.068446934 0.59537005
0.039978463 0.98084855 0.8290379
2.2726898 0.67237383 0.93383032
2.9947519 0.83726084 0.072771594
3.4785857 0.25608256 0.27015328
4.7514186 0.3387188 0.84733361
0.096517295 0.40440339 0.73663378
3.4878111 0.94380981 0.69943416
0.460143 0.056392483 0.35679981
2.8433657 0.37657183 0.12604678
2.8292394 0.89754993 0.19449371
0.80608964 0.90554565 0.17534228
4.9512792 0.36008364 0.84771609
4.6204305 0.95903403 0.68497694
4.9842887 0.65475112 0.94105953
1.3350552 0.60503489 0.27977833
0.57172328 0.62433839 0.68418169
4.2548919 0.32190061 0.6279915
2.752063 0.41392919 0.68438399
4.5360618 0.98260236 0.060955822
0.16629587 0.54845017 0.95850575
1.1387645 0.7096681 0.8640514
2.015476 0.69992393 0.22413503
1.2540562 0.62401009 0.18316904
4.6789408 0.62086785 0.83792019
4.3842382 0.88787889 0.44295508
0.78313017 0.0022235853 0.067293465
4.2040386 0.85320204 0.38919407
2.343996 0.40361461 0.8031233
0.76591611 0.31082702 0.78572559
1.0706952 0.34408617 0.3341758
0.86322397 0.57183909 0.043843906
0.18348098 0.97493422 0.74376786
1.3041562 0.22574551 0.36777794
2.2200012 0.1615337 0.98864579
1.4096022 0.038381405 0.87652475
3.6243775 0.19500743 0.8787483
3.9608448 0.035815161 0.73195034
0.90681529 0.50461441 0.13556495
4.9224315 0.65779757 0.44639197
3.8510597 0.87193662 0.79047811
0.5219385 0.044581443 0.3623172
0.74115807 0.081277639 0.33725145
4.4599972 0.34210888 0.56299698
1.2988871 0.78610915 0.72453064
1.2421161 0.068029568 0.76291209
0.62473983 0.79290509 0.95791948
0.018481473 0.58507407 0.99373466
3.6782334 0.76643711 0.49834904
4.3560576 0.75092345 0.15614666
1.5880178 0.52113539 0.028083298
0.54040843 0.62552309 0.072664738
2.3519945 0.77375472 0.15394238
4.0382514 0.66575414 0.49605125
1.8532366 0.92553157 0.28216037
0.47588992 0.17395481 0.35018992
4.2904501 0.29890278 0.14309502
4.0800476 0.30259907 0.72816908
4.0487213 0.038245711 0.49460626
1.5404664 0.90945733 0.24552971
2.3211997 0.22706085 0.7666651
2.4616163 0.33514252 0.39218816
2.8249397 0.80554146 0.16594288
3.5946517 0.61319178 0.83169705
1.074908 0.98383909 0.75722861
2.4857097 0.079017095 0.9311834
4.2366595 0.93710715 0.23008619
4.9521346 0.75311673 0.53268528
3.5929799 0.56286097 0.57093096
1.0660112 0.87095422 0.48038828
2.2936597 0.33519417 0.70744914
1.1269852 0.82751739 0.042591676
3.0879261 0.39250541 0.84813309
3.9176404 0.11143576 0.4613249
3.0761256 0.32641736 0.445164
1.8622686 0.82355928 0.52418113
1.5181857 0.67089117 0.46128827
2.6686168 0.66131806 0.21440499
0.33204305 0.3799141 0.77726591
3.186698 0.59311634 0.64822018
0.58863944 0.051848307 0.98341435
4.125885 0.27724534 0.81093174
4.3388433 0.89483058 0.20343716
3.579509 0.67835867 0.31487292
0.88613361 0.29358375 0.64129025
3.1119537 0.6660375 0.46484959
0.73285913 0.96967465 0.13574077
3.0393004 0.50339794 0.79705888
4.1113253 0.56980658 0.17697297
2.9976549 0.20714617 0.77008933
1.2387558 0.32487407 0.82193762
1.1558275 0.1500511 0.099182971
0.21048643 0.017819803 0.99401355
1.2276722 0.73372161 0.67237216
2.8020368 0.91094834 0.96595591
1.0084882 0.53333908 0.63199341
3.3327363 0.6799109 0.60166806
4.0114398 0.28777102 0.10506601
2.9967344 0.11003608 0.67487258
3.8815989 0.70956707 0.88201874
2.7320457 0.95731825 0.20689282
1.8417337 0.18848379 0.35694394
2.3376486 0.23058107 0.37476373
2.3077164 0.47611552 0.10848535
0.66957718 0.036522884 0.019433696
0.4993569 0.23822053 0.55277276
3.6593239 0.90476775 0.23268369
1.6676642 0.70705575 0.5204547
2.1929944 0.30640259 0.63049078
0.56735724 0.082722433 0.34005788
4.9774508 0.62913156 0.29737613
1.0119151 0.99747837 0.48585993
2.7966347 0.46500808 0.71644098
4.6704531 0.92655134 0.19255652
0.21288015 0.060466781 0.2290794
0.31004861 0.16033816 0.46729994
3.0739126 0.89220297 0.37206766
4.2373309 0.22573581 0.079123415
1.8396044 0.66433465 0.38552603
4.9920583 0.7778061 0.46824846
1.6923476 0.77329636 0.097380027
3.1792283 0.97567934 0.094858371
0.6085279 0.53500634 0.55986643
4.190733 0.46909699 0.4864178
0.15351547 0.51167303 0.5468846
1.2989124 0.57368273 0.70722276
3.6354122 0.18846525 0.59942567
0.49575046 0.035931431 0.82516152
0.89136755 0.40385231 0.48949617
2.8189974 0.40226397 0.2673023
0.16023989 0.7407335 0.040598627
0.64714009 0.37657914 0.016277988
1.1214318 0.49828473 0.55128431
3.920764 0.33643132 0.020381298
1.3528531 0.36713442 0.53205431
4.087276 0.62691689 0.10573708
2.6233897 0.35399932 0.29420233
0.62051809 0.45314941 0.33013374
4.7463255 0.63142294 0.73398608
2.1938064 0.19522245 0.13625002
3.530318 0.22727044 0.87698352
3.7333112 0.35669845 0.25356266
3.8147011 0.58098483 0.75184739
1.5711226 0.36513767 0.088278711
1.6730291 0.63570827 0.45541313
4.3333006 0.45316347 0.082330033
4.8619862 0.97784138 0.43632936
1.3329977 0.10194501 0.8894788
2.9836664 0.051210135 0.52090168
1.6535968 0.48997143 0.71612418
2.3348467 0.19603506 0.9433946
1.7197645 0.94269729 0.30009305
2.9875777 0.70563751 0.88107789
1.7468147 0.019862041 0.24621554
2.1882081 0.35446787 0.88192379
4.4652739 0.22112802 0.33508727
4.876924 0.19352524 0.31292868
2.0585709 0.46012476 0.41487369
1.5059646 0.056858063 0.46608382
4.1104732 0.38757741 0.95605528
2.6910939 0.85454679 0.15209031
2.408067 0.19849966 0.094787598
3.9085321 0.7960152 0.80042511
3.3139217 0.14537816 0.82028717
4.5449991 0.58301979 0.17475502
3.9546182 0.47607458 0.39588302
0.63005471 0.45145938 0.58940828
2.1946981 0.86317354 0.049533039
4.2690663 0.16436651 0.1063911
1.5994855 0.98646116 0.49396852
1.3797618 0.52467996 0.3485153
2.1402133 0.0062933816 0.54701495
2.6141512 0.78799981 0.34303018
1.616277 0.45078415 0.48840833
0.71771264 0.35978401 0.071428135
1.5914876 0.15070766 0.5475027
3.5709028 0.27671862 0.9989621
1.5179442 0.71565825 0.86213565
1.7656094 0.56947154 0.026502175
2.2975647 0.88936865 0.012963339
4.7674074 0.16532099 0.53764331
1.509984 0.59336364 0.54393667
4.245059 0.11619394 0.33193654
0.96020967 0.43944931 0.78272069
3.4022512 0.58299184 0.14250466
3.7593918 0.9012894 0.29321232
1.4969056 0.61546999 0.56993091
1.491716 0.9190588 0.28558916
0.80239439 0.27218071 0.8550607
0.93490523 0.73169369 0.74442929
0.99972194 0.68517518 0.90975028
3.6879385 0.98717195 0.50311399
1.407622 0.83618373 0.61930794
3.0673044 0.028225662 0.058757234
1.9809079 0.70867592 0.64174908
2.6934314 0.4605543 0.54303849
4.159493 0.75993544 0.15850845
2.0091476 0.058278631 0.077567272
3.4370935 0.21875751 0.34974796
2.7123966 0.40573856 0.081441648
1.4345433 0.60568297 0.76661682
0.98329467 0.34327066 0.75378877
3.4988644 0.62479508 0.58997256
1.5954041 0.23825599 0.61819822
1.8891902 0.63443756 0.32687411
0.097935721 0.17312385 0.78742844
2.8131282 0.0050224522 0.54736388
3.6056702 0.40685198 0.6056425
3.9935067 0.094270661 0.82440001
0.74224663 0.63675004 0.23013856
1.1494548 0.92365867 0.83582151
4.9825392 0.12031761 0.17909217
3.751483 0.82009053 0.80388725
1.7013456 0.13917135 0.042143229
4.7923365 0.51700938 0.67658085
1.4267071 0.53659654 0.84970468
0.36384928 0.099222176 0.85472715
3.1006684 0.82035625 0.2615791
1.128881 0.6190576 0.35584977
0.25088093 0.76750696 0.99259979
1.4015737 0.9973979 0.91625845
0.58068126 0.99390572 0.036576055
1.476142 0.74420232 0.85666656
0.49557832 0.084471449 0.99583793
0.70629448 0.042938769 0.5128473
4.0891981 0.32828021 0.049443875
3.3377218 0.40105006 0.14866605
2.6113575 0.02118377 0.96902233
3.9192531 0.24695997 0.58807993
0.698502 0.29713616 0.35558689
0.66150093 0.57745087 0.35298482
0.24279311 0.69358712 0.34689054
0.4256734 0.98881555 0.091092855
4.7090063 0.087931231 0.1755643
4.6881957 0.22919013 0.21850307
2.2524326 0.047029834 0.54678327
2.4996519 0.71457422 0.94783336
3.2429824 0.23684573 0.96901709
3.0880938 0.020696357 0.21597707
1.0284934 0.16039675 0.5131132
2.8064277 0.29269692 0.090564109
4.571352 0.34125555 0.78415126
1.3058045 0.42639023 0.7729668
1.7612689 0.36819148 0.86089808
2.6390903 0.30583066 0.090088174
3.7316058 0.7563172 0.13711801
1.4655222 0.25624758 0.8516922
1.2046888 0.90484399 0.088537961
1.0497744 0.52246279 0.10923432
2.1296597 0.72816145 0.26963106
4.6952257 0.28944701 0.56232798
0.14804648 0.2037174 0.90358353
4.0688028 0.46487829 0.32997379
2.9336369 0.81713206 0.6981653
2.238127 0.34495014 0.0039959447
2.6885679 0.091271296 0.76031315
3.3741581 0.38437572 0.016560692
2.6326191 0.62531352 0.92140472
3.0753088 0.83526838 0.44386744
3.6214805 0.26120037 0.1720289
4.969636 0.20024554 0.46147591
2.7812757 0.22985484 0.66519332
2.2991936 0.043615386 0.13007161
3.9490626 0.63034278 0.9472037
2.4398887 0.07796818 0.29215381
2.4598687 0.61568177 0.38342512
1.2614342 0.29051337 0.76780087
1.3442378 0.81703722 0.39311436
0.95126122 0.43209901 0.22838275
3.1705985 0.15639511 0.4895831
4.0307426 0.15032229 0.68982863
1.3381225 0.70657748 0.91968346
4.6640892 0.16641618 0.96329886
0.31444713 0.95622867 0.59364164
0.050465539 0.44420648 0.67160982
1.5112346 0.93618017 0.28729159
3.4283602 0.18846706 0.57780498
2.2673643 0.45731461 0.39484218
4.2329359 0.64756685 0.82694119
0.37484992 0.28168654 0.98333627
2.8227654 0.087835126 0.13365856
1.2719085 0.35545963 0.84023601
0.87032598 0.28827745 0.0066522104
0.68682027 0.35116687 0.96288091
3.6550283 0.36126 0.40708739
2.0130775 0.66350693 0.34326759
3.4495354 0.34917897 0.53173465
1.33856 0.80265182 0.98904926
3.3127711 0.64923906 0.63661605
2.4474766 0.72420907 0.9183026
2.3641579 0.28876215 0.0061377198
3.0324509 0.54314387 0.36159736
2.2336309 0.7172091 0.64987481
2.266892 0.85457313 0.0010416899
2.0812964 0.58557886 0.36230168
4.1167331 0.98819429 0.025808599
0.83307141 0.67810136 0.37498754
3.4917448 0.94581336 0.17763939
3.4369907 0.60836756 0.82687849
1.6200711 0.097862892 0.55108756
1.2115841 0.57069451 0.83984971
1.2422726 0.17718469 0.38299355
3.0502594 0.6239109 0.10020264
1.2996334 0.077289298 0.95477581
1.3048419 0.4935486 0.54035461
3.1163502 0.31689531 0.52854896
3.2453933 0.4835096 0.2066503
0.12033106 0.18185851 0.15246367
1.008528 0.86925668 0.76083124
0.14292039 0.19327086 0.85869414
2.8983581 0.43558767 0.42938864
2.0976064 0.68404222 0.60657334
4.0125742 0.29409409 0.23048422
4.5135875 0.55402076 0.3077735
4.2874665 0.81498915 0.8013221
1.9892396 0.43825921 0.11821742
4.6319842 0.087337881 0.60172701
0.66523582 0.11140409 0.78358549
1.4275541 0.3131097 0.65284216
0.23171037 0.34169379 0.84611303
4.5251808 0.92136538 0.2817007
1.6721243 0.34088668 0.96574289
4.7049909 0.14340155 0.259837
0.85741192 0.046119057 0.81385779
2.3962793 0.90361238 0.62884694
1.4028901 0.30146027 0.067106143
1.9939771 0.22785713 0.15444402
0.0026122131 0.36090428 0.26584813
3.9205399 0.64641511 0.5789578
2.1847506 0.69275719 0.92065161
1.4153157 0.5977934 0.84201699
2.8238192 0.93221825 0.18290369
2.6525335 0.87321639 0.32630524
3.9517188 0.044698797 0.3724243
3.0210075 0.52395469 0.27603665
1.1652422 0.80453271 0.57749695
1.5007728 0.20332812 0.80535406
2.2729931 0.20385057 0.16625834
3.6022334 0.98795855 0.81267345
1.4970227 0.42490864 0.50543064
1.1002808 0.70797181 0.10322407
0.31036577 0.27273563 0.035442315
1.2248843 0.80324239 0.90865874
2.8564105 0.59358615 0.95335752
4.7185321 0.19778763 0.47731221
1.0987152 0.43083605 0.28184491
3.9861999 0.73099065 0.48517302
3.01297 0.18558925 0.68902361
3.8442616 0.90603596 0.6769821
2.907629 0.20544054 0.10189076
0.43478248 0.4254967 0.80986255
0.95090276 0.48756984 0.082598187
1.1281143 0.73254669 0.88584059
0.671408 0.30382881 0.47942668
0.43819568 0.24753518 0.67721432
2.8247569 0.46727824 0.10805038
4.2339811 0.2645182 0.83904105
1.6598464 0.86711222 0.024630286
0.10496438 0.63596457 0.93066627
3.4898748 0.21749042 0.1361068
3.9993289 0.30444691 0.56160349
3.0486414 0.49462748 0.049173329
3.4616325 0.72025037 0.78172004
2.8908353 0.85453194 0.085548818
0.28796872 0.9421711 0.33308402
3.6740403 0.50712246 0.80036223
4.214292 0.3539187 0.064880453
3.4094975 0.68588799 0.93199271
3.532649 0.70688087 0.56795728
3.1859803 0.40485585 0.78544772
3.8665142 0.2047216 0.0898946
1.6745316 0.81444991 0.58452207
1.9203984 0.50677639 0.30477241
0.82899839 0.084943436 0.15930438
1.2567425 0.14253718 0.10147546
2.9221623 0.87734526 0.60859787
1.9239737 0.7202037 0.96251661
2.2483759 0.40210319 0.64840454
1.9083394 0.10863296 0.35528541
4.7481256 0.74582899 0.76014125
3.6753643 0.51913184 0.96486282
4.1248369 0.85403818 0.77931273
2.0474474 0.23811781 0.28608912
3.5713098 0.40391749 0.37103254
4.3678317 0.65526599 0.51356971
4.8752089 0.23969848 0.39091498
2.9181983 0.62449324 0.11111869
2.7307813 0.074168414 0.51322186
0.97280407 0.4558363 0.62185484
2.7492311 0.40546143 0.36768383
1.5499372 0.14053428 0.88681567
1.3742514 0.96550173 0.74085385
0.2708151 0.37499127 0.97897166
1.7012607 0.089253202 0.38288912
3.5564234 0.96281952 0.038155105
1.124272 0.93786132 0.27785358
3.0788469 0.52150095 0.90234679
3.6344402 0.067657225 0.97651523
1.2005498 0.26221803 0.4323515
4.309824 0.81206423 0.83781296
1.1482432 0.12205172 0.97834724
0.58232152 0.39690199 0.94384897
4.2865906 0.45106503 0.31884024
4.1814489 0.79131716 0.40809345
1.0958945 0.50260186 0.37091297
1.28667 0.72745627 0.30877426
2.6759379 0.34322566 0.83027524
2.1876719 0.070113741 0.89793247
2.0702479 0.3102237 0.1601505
4.2320056 0.17218852 0.97221476
3.4210703 0.40183714 0.094266467
3.3128064 0.51830149 0.49116847
3.0320513 0.37561959 0.9422335
4.6262527 0.21190937 0.73355067
1.6667199 0.43108827 0.23615249
3.5212848 0.68842226 0.96360874
0.065155961 0.22360983 0.3068344
4.2165322 0.6611442 0.37694812
3.7061944 0.075193822 0.68717182
4.5069466 0.92159492 0.85936034
4.3680205 0.60580903 0.26119751
4.8393531 0.26837033 0.77949899
2.2951951 0.8747806 0.15511857
2.0063627 0.80003113 0.36702794
0.67411584 0.13337512 0.79811621
1.8548783 0.83763206 0.48653844
1.6729219 0.85066324 0.71014827
3.2070937 0.69396967 0.37129247
0.091834582 0.43520853 0.44648629
3.5276937 0.33659789 0.36808124
2.8244953 0.21020199 0.97389024
4.1304832 0.17807256 0.24226058
3.0279779 0.6371116 0.11704118
3.8035707 0.038384132 0.9170723
0.6387105 0.17320731 0.050447445
4.6292911 0.54418296 0.88807952
2.0619836 0.87876737 0.73874277
0.6127249 0.52018613 0.43271244
2.4691873 0.53855306 0.86792094
4.7016187 0.24409182 0.20451885
1.5420251 0.80899096 0.41472083
1.4114763 0.63508755 0.59279341
2.6227794 0.24068317 0.22990501
3.2079852 0.0013973308 0.26828915
2.7933466 0.12913942 0.44149646
3.045584 0.054997712 0.98567945
2.4859815 0.46739444 0.86444676
1.1796952 0.58993942 0.38463295
3.3432572 0.083776884 0.923186
2.6828623 0.024100658 0.16727783
3.7054565 0.33250567 0.97626877
0.77906072 0.61480093 0.61135632
3.7430277 0.13935678 0.85203952
4.8925529 0.78095382 0.85343683
1.2339984 0.33962312 0.98257625
3.4414806 0.94873995 0.037573967
3.3698778 0.4459362 0.5049684
2.6921117 0.68187529 0.094907813
4.6152763 0.35052675 0.1786847
4.2312064 0.88709921 0.20278536
0.067595556 0.62819052 0.53529102
4.9489393 0.7840026 0.15009198
3.0057209 0.53260815 0.28944874
2.2659185 0.51111871 0.070402548
1.5331026 0.75791842 0.41002569
1.4459839 0.44621456 0.3587656
1.6338538 0.12019012 0.80470181
4.1586957 0.65861249 0.48657709
4.6332345 0.58166778 0.83710384
0.5266583 0.42790905 0.72420305
1.5405852 0.44142815 0.35239354
4.2170401 0.43121603 0.13639617
4.9674997 0.032360245 0.66900432
1.4147438 0.48554397 0.18012306
1.7667564 0.7921645 0.93804145
3.816885 0.081361286 0.38425604
0.61071301 0.40813205 0.50444615
4.634222 0.2398712 0.16305862
2.0671074 0.16651818 0.74472636
1.2526268 0.27184984 0.17263542
4.873642 0.57996684 0.61406356
1.6356097 0.42337492 0.0452796
2.3175905 0.41687492 0.077639841
0.66261214 0.69982368 0.56318378
1.5632274 0.053174995 0.35534829
1.2534349 0.81655198 0.43670958
3.174715 0.9386946 0.8448416
0.69694579 0.86553901 0.084712833
1.512239 0.27896053 0.25123101
0.23587079 0.52948588 0.52308089
1.0990479 0.50421429 0.10304774
4.1693659 0.8313362 0.52642262
4.3957634 0.29485434 0.94329756
4.7839627 0.42737678 0.64312124
2.5998819 0.74002224 0.69629627
4.3766232 0.99070925 0.51284826
1.5601712 0.62565225 0.45154282
0.7843793 0.76504141 0.31708184
1.2079434 0.067489177 0.59604234
2.4640987 0.11466333 0.12552822
0.079502918 0.33447292 0.6297425
0.59474158 0.16834606 0.46107873
3.2268548 0.047498804 0.75593305
2.9433427 0.0042913896 0.18330982
1.158949 0.52426779 0.9233321
4.64043 0.39959243 0.91404134
2.2046714 0.71162671 0.53969353
4.4623857 0.86850256 0.30473495
1.0477948 0.11009125 0.37222412
4.0280066 0.602911 0.48688745
4.6556473 0.61881155 0.82136035
2.8043602 0.73775989 0.98970646
0.10975372 0.38313085 0.037205238
3.8894188 0.97179937 0.041496627
4.8059678 0.20358919 0.56576443
4.4226284 0.13167524 0.96535683
3.992835 0.57260954 0.67698354
1.6913028 0.4650867 0.54548609
3.2149777 0.67464566 0.6555773
0.076098256 0.48024696 0.2584883
2.5105357 0.41137651 0.87729985
1.6173375 0.97224849 0.61505973
1.5658696 0.99419928 0.99819058
1.7518958 0.77208304 0.96998996
1.959379 0.73327667 0.17357913
4.7882009 0.61780238 0.30525437
4.614985 0.41636938 0.87786394
2.9999027 0.75462997 0.34295064
0.72733313 0.39762548 0.017596297
4.0052199 0.41284513 0.49784327
0.29766127 0.91495228 0.90921974
4.6841607 0.23841974 0.8814683
2.7594593 0.55159366 0.87566751
2.750412 0.90197283 0.64775056
2.6003616 0.29384863 0.38102725
3.4682574 0.2514888 0.9988296
4.9945292 0.17448583 0.41519901
4.3838487 0.7744664 0.16982897
1.0986021 0.91993302 0.56745446
1.1865836 0.72097701 0.98029959
3.6757998 0.78050923 0.89525187
3.2218986 0.71734136 0.1336716
2.62924 0.2692332 0.68526524
2.0075777 0.81931561 0.58723807
0.24633063 0.33938792 0.88108671
2.1514668 0.033039402 0.13257553
2.1456151 0.031945255 0.30706137
4.2216101 0.90871507 0.081527762
0.070754908 0.12843546 0.0014607888
2.9080272 0.36575219 0.7224378
2.809525 0.10091218 0.50294703
2.2857845 0.74529189 0.22028837
2.9541423 0.27113992 0.48952156
1.3804687 0.67265546 0.30883715
4.316659 0.72192162 0.64822507
3.7220929 0.15221497 0.68126446
4.3849707 0.58133799 0.71320975
0.92027736 0.42565998 0.62192476
1.3279163 0.43981096 0.75036025
1.3352202 0.021416416 0.11611243
4.9474092 0.58332145 0.21702461
2.4621439 0.040478349 0.96231651
3.5635858 0.63130683 0.23345645
1.0111936 0.90740061 0.90611196
2.5553792 0.77073246 0.62803352
0.79650474 0.51515102 0.78024852
4.202827 0.39214513 0.36158648
2.7688756 0.5762006 0.78724647
0.87849951 0.84178388 0.22705746
4.6303005 0.1088279 0.24847388
0.21086289 0.098309703 0.83179533
1.2959858 0.59073853 0.87227368
1.1075685 0.30345571 0.50358051
2.2748506 0.50569445 0.41098112
1.8054104 0.016770329 0.18171357
4.9455781 0.17607127 0.6968646
3.8468206 0.016636692 0.089009739
0.65475309 0.57041186 0.66521037
4.5909853 0.74611175 0.50699425
0.72627282 0.67217189 0.61582214
1.9686421 0.71434444 0.71413183
1.1276189 0.97354168 0.30487034
0.4889873 0.19505535 0.60832608
3.0068898 0.65002549 0.1140205
0.061795488 0.011107598 0.13079083
0.97036332 0.00022321241 0.30686212
4.4546862 0.76958734 0.32349879
4.899735 0.90053797 0.89391065
3.2257867 0.81873506 0.6400224
0.76075792 0.96398962 0.31219426
3.8398685 0.35771808 0.026538732
2.4105275 0.58324188 8.0382917e-05
3.9348793 0.68103933 0.19513574
1.9765096 0.2824173 0.84516126
2.546612 0.29477641 0.85626882
3.2005661 0.48884907 0.85649204
4.7348766 0.37978631 0.62607938
1.3523706 0.35973334 0.52661735
0.82192391 0.0048906989 0.34535241
4.0220356 0.15704229 0.30934206
0.58300704 0.92501599 0.66706014
0.71570069 0.40712151 0.25030199
0.71610266 0.19409738 0.93134129
1.6917813 0.58939934 0.2137586
0.91758758 0.098721728 0.50853503
0.1989318 0.73883498 0.99738407
4.4813919 0.68581033 0.37717038
2.611789 0.95628446 0.73690373
0.24487591 0.12066925 0.74179441
1.9716381 0.92507637 0.89883673
3.5183482 0.041677803 0.82385272
1.8536489 0.18481794 0.23097423
3.1051588 0.32803845 0.42507163
2.7618651 0.66639471 0.014470926
3.8306584 0.84991223 0.11319266
1.3733333 0.88969862 0.85202765
1.3602537 0.78597701 0.53783798
3.2461057 0.30833486 0.49412242
1.9306242 0.35731003 0.61479169
0.63959628 0.75163764 0.53986806
0.13377982 0.45530728 0.58154589
4.2530432 0.82603705 0.7663638
0.40791449 0.44706884 0.094402283
2.5332725 0.99944192 0.76079702
2.6056271 0.76557362 0.61070925
3.1715906 0.040240277 0.50040781
2.4317286 0.31229103 0.28638488
0.12091838 0.96151215 0.59471971
2.5915303 0.34763697 0.95202976
0.6654889 0.47555622 0.7036674
3.3648293 0.50231218 0.15897466
1.2725587 0.35292086 0.98501176
0.10437775 0.43450376 0.4320806
0.57638913 0.94115829 0.43152252
4.380374 0.4622837 0.19709611
2.4339204 0.096601799 0.23733638
4.9359593 0.58294749 0.54962742
1.3678839 0.60713118 0.51113951
4.3414826 0.1254373 0.85877651
4.1016312 0.25853509 0.33433273
2.6199679 0.93150091 0.83664495
3.4148412 0.18601267 0.18956582
3.3399 0.20688823 0.62406957
0.50030303 0.32216606 0.56522787
2.6579156 0.19824089 0.027511565
3.6433961 0.68502498 0.12411337
4.8300781 0.67221689 0.70706087
2.5782149 0.94579369 0.31419209
0.13391274 0.81409019 0.43962938
4.4277954 0.63441646 0.69816446
1.0994589 0.15841006 0.62966537
0.28268376 0.84137833 0.81567806
1.2305129 0.50935835 0.022566296
4.3508606 0.60941899 0.34473234
2.177 0.14100209 0.54297322
2.3145578 0.8696813 0.22799821
2.9351246 0.83569694 0.90021509
1.4704292 0.35133994 0.84600884
3.0413895 0.37812248 0.66009903
0.23953645 0.26368156 0.29451546
3.7303588 0.48357335 0.4529255
1.8786858 0.54011011 0.29430386
0.95707619 0.78621268 0.80366224
1.0699075 0.65638483 0.4130812
2.7935693 0.091784827 0.55408329
0.50843561 0.55469638 0.42376459
1.6484267 0.14172132 0.25946152
1.1495023 0.43580714 0.61080146
0.37954634 0.044085059 0.98892397
3.6800413 0.091992348 0.2526055
0.15261862 0.83806413 0.73617887
2.4172461 0.21380126 0.27628896
3.8887656 0.40521652 0.062501647
2.9070764 0.61919802 0.71888649
4.9724827 0.17791191 0.81067127
2.7428987 0.27959904 0.36536768
4.861722 0.6092844 0.50708902
1.1590295 0.83918482 0.94289619
4.213037 0.91509414 0.98698121
4.1576562 0.65110236 0.078973576
0.4206841 0.68162608 0.91703767
4.1015782 0.16507535 0.13083895
0.48302326 0.94282842 0.53605545
0.79553151 0.52424371 0.15525348
4.3899636 0.51874024 0.33316541
3.4433203 0.067320004 0.61276442
0.27015877 0.03966438 0.2220488
2.8056037 0.27147028 0.061233647
2.5200846 0.11407763 0.97632778
2.4549909 0.94560891 0.62743014
2.8498588 0.029745763 0.30905625
2.4350471 0.85006142 0.47413158
3.089242 0.94666612 0.41696
0.76951915 0.1057724 0.94120377
1.5457865 0.98376518 0.45994398
3.2116137 0.6724292 0.527264
1.2754357 0.72646099 0.56692839
2.3856795 0.28758177 0.83839864
2.691848 0.79159868 0.95247626
2.5734868 0.28259689 0.89808518
0.71063739 0.85256863 0.92783099
2.2559187 0.33957806 0.77789241
4.6265764 0.95742643 0.72455853
1.7113768 0.11133026 0.83033091
1.4173955 0.42048755 0.81409609
3.7171152 0.062810272 0.4865253
1.3534352 0.31789741 0.21298629
4.188077 0.79503334 0.50056803
3.38007 0.33340293 0.29216674
3.1424513 0.84810024 0.5747636
2.6328776 0.99022776 0.42733222
2.2720323 0.4414115 0.76691031
1.1614944 0.36672682 0.72433674
4.784287 0.7090022 0.83566695
3.9359415 0.99248129 0.25615454
3.0064218 0.73590434 0.31896481
0.43904838 0.0065913717 0.63686222
1.5039798 0.84420675 0.43189555
4.0068197 0.52022082 0.76529849
0.46765372 0.1487111 0.61339873
3.3414719 0.67528659 0.60362649
0.47813299 0.12969308 0.045038011
4.3126845 0.36199197 0.41176483
2.9343679 0.31884935 0.12076701
2.1127028 0.10603766 0.11324827
3.3934758 0.70732206 0.84915262
4.9882994 0.79513168 0.85574394
3.1726108 0.095927663 0.69995075
0.33208847 0.89729166 0.22017156
4.1585808 0.99082243 0.36888266
2.2255747 0.65911674 0.044169273
0.24370721 0.7547434 0.17386235
0.46889725 0.61728024 0.53585434
2.5277214 0.20415387 0.85470366
3.1315565 0.62669444 0.96074134
3.697798 0.30538955 0.66806334
2.9435608 0.30304947 0.46319509
2.2222805 0.93757164 0.55912274
0.72203439 0.0039893077 0.4564144
1.8228923 0.83570546 0.44723684
3.6673055 0.2808204 0.1063536
3.8881519 0.32956186 0.86109698
4.7574635 0.4233413 0.47837722
2.4367352 0.92888558 0.68253106
1.7102536 0.55519688 0.30922553
1.5139604 0.29475647 0.61461508
4.8542771 0.88346863 0.91766453
2.1702526 0.32792476 0.85523617
4.9658661 0.47233164 0.85922545
2.2479382 0.83691007 0.69493097
4.4841223 0.57037121 0.97575134
0.015890364 0.34800157 0.3053132
4.3213749 0.29949433 0.7286545
1.7132612 0.78684133 0.65754008
0.12591678 0.12889208 0.21273698
1.6720444 0.43168414 0.50749344
4.7451196 0.40253958 0.39096206
4.3334422 0.83659005 0.71888685
3.6096232 0.82976329 0.19121848
2.9057505 0.27935097 0.028128579
1.3804054 0.17617545 0.59849977
1.2591623 0.17935351 0.94650137
2.7857282 0.043628555 0.24599567
1.4290007 0.38628083 0.032837033
4.716701 0.41146418 0.16172911
0.78038609 0.74587303 0.59341323
3.3178532 0.694897 0.99595284
0.27266359 0.56158549 0.8325429
3.8670979 0.28351015 0.66230619
4.8231902 0.86466032 0.94165719
4.9638329 0.14074139 0.1178326
2.956332 0.39257383 0.29718611
2.6888387 0.94971949 0.34081468
3.918817 0.23551966 0.72709548
4.0830021 0.1788599 0.13855967
4.8916478 0.33493713 0.88443273
2.8587141 0.9985078 0.57932973
2.8384783 0.053040523 0.14091522
2.0011928 0.82646006 0.42442539
0.31272385 0.79109812 0.28908569
0.021009685 0.78386474 0.42982706
0.61017269 0.37513113 0.82240093
2.0961032 0.9128989 0.77212042
3.8001766 0.69666231 0.00764006
2.4356542 0.51326281 0.18649997
3.1284525 0.49159238 0.52143711
2.550616 0.063335218 0.51994491
0.44726473 0.63103092 0.57298541
1.1518408 0.031269461 0.3994455
3.2739677 0.093814231 0.19054361
4.7193961 0.098016165 0.97440833
1.8685313 0.22005071 0.34953946
0.98053598 0.63927138 0.26243833
4.8411379 0.39930668 0.95910066
4.8793383 0.88643754 0.47236344
0.81183803 0.512128 0.96395582
3.4190238 0.02225123 0.027291022
1.0187482 0.11170418 0.65832192
3.8836753 0.34207234 0.68959135
0.88090283 0.99686587 0.7834056
1.8336209 0.94074512 0.88142174
1.7056626 0.3144514 0.10147248
3.4533598 0.51055861 0.74074388
4.7655511 0.47878617 0.14005055
4.5610547 0.45465383 0.026488062
1.9228719 0.61702144 0.53861606
1.7426509 0.30082616 0.56086731
1.879106 0.50457579 0.67257148
0.17071559 0.28131089 0.014643825
3.6186724 0.45749146 0.011509717
2.5357006 0.82421565 0.95225483
1.9428093 0.16534816 0.26670623
2.4501717 0.85602015 0.77726483
1.153891 0.80913043 0.256051
1.8541437 0.72134137 0.7107048
1.9865841 0.10591576 0.32772624
4.6796641 0.45444593 0.62855244
2.4840009 0.83026713 0.13312823
0.84685832 0.86441022 0.41443911
0.9200775 0.58814472 0.87193054
0.97762609 0.095284849 0.69614619
0.73890024 0.48384672 0.86149436
2.0724313 0.97388107 0.71751451
0.95875543 0.2046593 0.52664495
2.2390103 0.57548803 0.2479863
0.79253447 0.97280484 0.35390204
2.4311657 0.90873778 0.808348
0.57392788 0.40553793 0.63861513
1.2395691 0.57490963 0.50302535
3.3117645 0.75892514 0.091170117
2.6714172 0.95445031 0.18645497
1.1521484 0.10223037 0.67030168
0.45962012 0.51671666 0.6441828
4.0471926 0.70846772 0.84884208
1.6804172 0.15626983 0.42433012
2.9203486 0.31477672 0.39713499
4.6898589 0.80100989 0.30587274
3.7315989 0.91579545 0.7114107
1.9246745 0.16370928 0.2863203
4.4398012 0.8260622 0.045245405
4.8956518 0.36034566 0.99969572
0.82792675 0.59077537 0.1019261
4.1794353 0.68269938 0.61864275
2.4003491 0.49213788 0.3271105
1.6445594 0.82822132 0.48338032
3.7662101 0.41229105 0.79815704
0.75188488 0.35026285 0.59916693
2.2812486 0.096582629 0.51496238
0.8383019 0.48151752 0.67867166
2.2699034 0.36947781 0.50473386
2.4961305 0.3486082 0.86507952
2.4946091 0.51419353 0.45585489
3.0042396 0.35008058 0.13855426
1.0974532 0.83015043 0.63069212
2.7330058 0.1590623 0.45891348
0.14990735 0.91230428 0.87120456
4.1406927 0.062681265 0.22146738
2.1365273 0.51893097 0.31805
4.711339 0.68659133 0.79956752
3.1046977 0.14057203 0.16904534
0.62836707 0.6397981 0.51765352
4.9537644 0.13871992 0.031847075
2.2330391 0.73956782 0.38192767
2.9258106 0.95905846 0.21207808
1.0792712 0.50565964 0.37114036
3.3738387 0.53564113 0.28344467
2.729861 0.36377963 0.34612593
3.837198 0.79108506 0.86505687
0.42744818 0.73335296 0.55164826
4.4252858 0.35429248 0.69222027
0.27051258 0.4799659 0.33201838
2.8587804 0.47071886 0.47073829
3.0180156 0.91732669 0.21030614
4.9276538 0.50248879 0.16936462
0.98804438 0.71834302 0.67502427
2.8437462 0.39311075 0.21066537
4.2609692 0.93908298 0.57444501
0.9915992 0.70652264 0.3655301
0.31688368 0.79201227 0.098883055
3.075125 0.67706943 0.45317554
1.5362264 0.73117197 0.93314147
3.1963184 0.302928 0.40386033
0.55000985 0.90653116 0.32118702
1.6015406 0.89206195 0.82367581
2.4483635 0.089670807 0.54201889
0.82348496 0.65842003 0.93512964
1.8768119 0.51061398 0.87421262
4.7490368 0.70893377 0.58073527
1.5766873 0.77231055 0.37274751
2.0711026 0.38733554 0.049816951
4.3369803 0.69458079 0.78098893
4.0026875 0.33384448 0.083916925
1.0219892 0.44384646 0.99044806
2.6279244 0.76415455 0.88251001
1.7463034 0.2538273 0.97218078
4.456398 0.4185243 0.63060087
4.1320457 0.79388666 0.1412148
3.503109 0.74369401 0.85014862
1.4067852 0.059031494 0.62245917
3.2705228 0.47325203 0.0097946804
3.5196075 0.34064808 0.70437551
2.4245522 0.14118561 0.038219977
2.8441367 0.34558347 0.48206642
2.7963772 0.87116832 0.24622099
2.2089272 0.22042903 0.50004828
2.0698309 0.1117086 0.9185726
0.2228353 0.9381178 0.71245921
0.9289093 0.63873959 0.45615324
0.17965236 0.92009664 0.51518476
3.2919481 0.57420123 0.98843676
3.3409214 0.27812272 0.32908484
1.8627989 0.76303315 0.47027045
2.0538988 0.33186051 0.81585389
4.464231 0.89113593 0.68702227
0.69533598 0.33292136 0.90745127
3.1955776 0.74688756 0.019159865
2.7884402 0.79145461 0.95727766
1.3507365 0.97723651 0.59601724
3.6315026 0.013166973 0.51611388
1.2074265 0.67155659 0.090315089
1.1496103 0.3397409 0.36843783
2.7950346 0.71230066 0.13147098
0.14638685 0.12308045 0.46333149
4.2256565 0.015926657 0.35446745
2.6607678 0.15499386 0.68738878
2.1980238 0.79410934 0.43427637
2.2938232 0.3517974 0.225731
2.0802114 0.62194473 0.20296751
0.060297668 0.34824526 0.21613447
2.640867 0.58973056 0.88769108
3.0924425 0.81965262 0.22743197
4.9346313 0.37865955 0.93973267
0.59198648 0.40793693 0.062813103
2.908644 0.25306821 0.078739762
4.6809812 0.78522176 0.23373361
3.1179252 0.22482651 0.027842959
0.28930715 0.68359119 0.37964037
1.4179622 0.09963347 0.0015850798
2.4327996 0.11169301 0.34983036
3.5134721 0.63986641 0.93956089
2.9519274 0.25835493 0.75921357
4.089087 0.24528125 0.13787311
3.7877505 0.36367854 0.54581004
4.1018162 0.94540733 0.79887825
4.4955149 0.8816036 0.58409995
0.6641829 0.50518864 0.80892646
0.80339772 0.56305009 0.49251765
2.7015996 0.84664255 0.59215117
2.7095249 0.33320248 0.70384413
4.4586763 0.035896897 0.34371057
4.1564813 0.62628239 0.6020655
2.9525492 0.44409984 0.84734672
3.6419146 0.20164995 0.21102528
1.3709648 0.022013154 0.15643263
0.36535606 0.92111611 0.038036235
3.285856 0.053952713 0.54322493
2.3304882 0.21463226 0.106275
4.7930765 0.75495219 0.95291752
2.7538323 0.29685718 0.28612
1.2730529 0.18859251 0.32201689
2.991606 0.019888775 0.94829929
1.0019332 0.61039859 0.39239913
0.23866698 0.33878151 0.5940491
1.2937933 0.61297446 0.61606222
2.0759563 0.68604571 0.53717834
2.2661376 0.34321687 0.59113109
4.9822621 0.80931455 0.8057633
0.51363719 0.76792985 0.5607155
0.27822486 0.31869635 0.85757267
1.7088249 0.57330698 0.046165191
3.3189094 0.17162812 0.066053964
3.0604057 0.37201479 0.67645258
0.022401521 0.41974819 0.015234075
2.9926469 0.67850685 0.62820858
1.072958 0.093698159 0.31425425
3.7588499 0.54692572 0.65747112
1.7145051 0.54337811 0.46678567
0.74332178 0.64610559 0.23471554
3.5468993 0.70175058 0.5534119
2.8347626 0.043515526 0.12671882
3.0655885 0.70729738 0.29834694
3.3958583 0.31937858 0.67036176
1.7781211 0.32385889 0.090109922
1.8542916 0.92238826 0.7686168
4.9953341 0.13697988 0.86231494
1.5666057 0.88874984 0.40924063
4.853961 0.23165089 0.95261878
2.1878896 0.38031524 0.59872437
3.3614674 0.089695103 0.30047491
1.1285266 0.65664762 0.34399042
1.7621207 0.26976538 0.051287834
3.2538555 0.94893706 0.37066641
1.6056641 0.30456129 0.6945253
2.0562136 0.67541963 0.61691356
0.89929765 0.67448652 0.75389344
0.21087232 0.98780763 0.64264327
2.2570753 0.95859987 0.87429416
2.0201693 0.3961778 0.25460941
0.01379111 0.068471253 0.34430453
1.5161656 0.29417658 0.00095216418
3.2361176 0.64660072 0.27071753
3.4925568 0.29737183 0.21965457
0.34588894 0.61850464 0.52421588
3.8185155 0.029747427 0.19963549
1.9030833 0.20960696 0.87412196
0.6725505 0.25178143 0.8619296
3.8857667 0.70319653 0.82052946
3.2572379 0.1072304 0.21670727
4.5302849 0.10998861 0.28517851
1.2518077 0.41322175 0.57935512
1.2565684 0.060445283 0.22595584
2.6101558 0.75895667 0.52332771
3.7084291 0.82813448 0.14183235
1.3295083 0.59183753 0.17157978
2.3276858 0.97245419 0.38118675
1.6982956 0.10696432 0.63296819
1.0079436 0.88411772 0.33616468
0.11059102 0.53556532 0.44339508
1.1941273 0.44162229 0.55338371
2.6200199 0.69198382 0.96660542
0.51679552 0.94329751 0.027050711
1.6465747 0.46532872 0.7860074
4.2632132 0.20701453 0.61414182
4.9723749 0.47291619 0.20597939
0.83027387 0.93845338 0.17843361
2.7362075 0.27811247 0.28539795
0.90104842 0.47970122 0.16951565
2.5818717 0.50181943 0.70508099
4.7988472 0.74064487 0.14670326
2.5657656 0.26464888 0.83868706
2.3987927 0.36800799 0.78198463
2.5340464 0.69732296 0.24731334
1.4640832 0.54996562 0.45432785
4.5347924 0.54444057 0.92724407
0.56468934 0.71049535 0.86569738
1.4568574 0.25773689 0.14380987
2.883847 0.43794656 0.62351108
3.7314253 0.95432091 0.12533051
2.2568302 0.91409034 0.86597538
2.9903464 0.4272435 0.13062428
2.1837819 0.90700203 0.49863228
1.0937049 0.41381133 0.19595525
2.3302715 0.70662796 0.74592084
4.6019106 0.61358643 0.29036143
4.238131 0.72652429 0.00085679302
3.566618 0.017895795 0.25859368
4.2856674 0.59466523 0.69654024
2.4032228 0.34095028 0.65086114
3.0298755 0.79231632 0.56495154
2.3597524 0.3903856 0.99219501
3.0128739 0.827142 0.8991971
0.50603515 0.045882955 0.3130084
1.4858114 0.51193726 0.019636355
0.21541554 0.43231943 0.63322282
1.6672226 0.27994564 0.35974711
1.6715066 0.99326921 0.3776429
2.9644752 0.85040271 0.9723081
1.4471762 0.33104727 0.31325838
4.7014818 0.93702233 0.1055747
2.5262396 0.4089728 0.4959603
2.4872148 0.011547564 0.32310227
1.9832003 0.1127546 0.36898524
3.5482421 0.40991688 0.8809225
3.6464241 0.45299998 0.3132419
1.812538 0.78644449 0.59318751
3.6112735 0.12074584 0.58645678
0.49948812 0.71364081 0.43685949
0.36102867 0.0030760844 0.76790679
1.9273206 0.94337249 0.70492911
2.455194 0.44862044 0.11390193
4.9349957 0.9460634 0.12544949
1.5505069 0.34270346 0.23820409
3.3954332 0.052351907 0.64812094
2.8000455 0.78163671 0.10112093
4.3662548 0.1441443 0.88756543
2.3321927 0.86639899 0.0083112791
0.26447663 0.96629661 0.72195214
2.4487741 0.038502373 0.72502822
1.2883079 0.4239665 0.6684007
4.8129535 0.91500533 0.11702114
0.3824631 0.90200448 0.063084565
1.0097106 0.21210586 0.40578803
2.200731 0.8911925 0.45813993
0.4413358 0.45120159 0.23977664
0.94694048 0.32445258 0.38392094
0.38476771 0.79089111 0.25031996
0.42632413 0.84378648 0.2166166
4.0360847 0.33354127 0.25511897
2.6612258 0.59120286 0.67908549
1.0032293 0.55379355 0.59409082
1.5883349 0.63028616 0.49609527
1.9037577 0.8322283 0.70820111
3.9326978 0.27237448 0.59939361
1.2233975 0.36064166 0.050595175
2.4222808 0.55002975 0.37504777
4.3418856 0.62698328 0.1659389
0.5934853 0.71224815 0.0097253621
1.6765683 0.51946509 0.34326664
2.9521632 0.051710207 0.93446946
1.3475906 0.25235605 0.48826304
4.3180447 0.57002306 0.11854921
1.7985209 0.95077461 0.95077747
0.33952665 0.73731416 0.22315198
3.3364944 0.98199368 0.58379364
3.5894704 0.46644986 0.13382339
0.46470931 0.33482695 0.76080668
1.2944038 0.45352402 0.47305483
1.3430306 0.78883767 0.99251992
3.0593638 0.37927032 0.044230096
2.7317111 0.64878839 0.29658616
0.17302641 0.51239735 0.86660916
0.76577246 0.87210155 0.81738377
0.51965988 0.94000685 0.55469793
1.6354197 0.60730582 0.53669161
4.554388 0.3251999 0.0031414693
0.22350499 0.41814178 0.33796841
4.0275383 0.67702252 0.7914924
1.3928126 0.94562864 0.58033007
1.355412 0.55750144 0.95960039
1.5765625 0.10384368 0.60838884
3.0594933 0.13844897 0.12078617
2.3925393 0.29160345 0.99288774
1.4794581 0.39553544 0.93289459
4.2529478 0.72261941 0.54020041
1.9364059 0.633497 0.86540031
1.9521132 0.67819798 0.28354207
3.6419551 0.4837057 0.96056461
2.5994174 0.76226819 0.90619332
0.50106794 0.033350624 0.46369472
0.29907 0.34866315 0.56753844
3.3410141 0.96056181 0.70598739
3.9449451 0.43906963 0.99759084
3.9093833 0.73496127 0.39312628
3.5738564 0.58555084 0.11574566
1.2748584 0.97283202 0.74924266
0.60185993 0.36325467 0.42744064
2.0195704 0.091645733 0.91114634
1.8223934 0.61152923 0.67341453
1.3533599 0.71174282 0.70676517
3.6718335 0.77155685 0.055428293
1.5095257 0.43975964 0.015990091
0.039462522 0.22874863 0.45505974
0.027416706 0.010625334 0.19002099
1.9930481 0.72539663 0.77557182
2.5717762 0.98036832 0.74840385
1.3179895 0.10074029 0.11165848
3.4551928 0.50465435 0.20330422
3.0109243 0.86913306 0.81483346
1.3779969 0.13980503 0.52657628
4.9118228 0.87417173 0.29813311
0.18896425 0.17607686 0.73789275
0.2689147 0.18396936 0.96664137
2.5442133 0.18945271 0.97726673
3.4943185 0.58806229 0.70266336
2.3721774 0.10241758 0.68303162
1.1141964 0.36601549 0.78377193
1.6724889 0.05705405 0.28842628
2.6890099 0.65923893 0.15755934
1.7631772 0.93483829 0.29736435
4.3960586 0.91720289 0.1715361
0.88672405 0.95499575 0.34761298
4.5761876 0.0087786652 0.53158236
4.4093943 0.51762134 0.72103506
4.2957282 0.21648501 0.30909735
2.8090451 0.69092047 0.41151494
1.2242031 0.91375977 0.77753043
0.14306286 0.24825756 0.83458447
1.5851943 0.78605956 0.49382341
2.3729908 0.13869502 0.4286617
3.859813 0.017906733 0.34586459
4.7174931 0.19525155 0.30086032
1.4555582 0.11048912 0.30963898
4.1134701 0.99236804 0.82726032
2.7186451 0.85151368 0.043745328
4.2641315 0.41332272 0.73466581
1.3217064 0.65816331 0.64842558
0.20935869 0.68677592 0.89668316
4.3822808 0.0038147797 0.68274271
1.851398 0.47841299 0.82143772
3.9947066 0.25037557 0.8393445
0.72402966 0.19387425 0.034596026
2.2283313 0.48498592 0.14508514
3.7765262 0.30767989 0.1374532
2.9128277 0.8514089 0.98896688
3.1315544 0.70423526 0.4022896
1.8048835 0.96857655 0.060452953
0.047011457 0.010448316 0.74722886
4.530427 0.88690454 0.75104362
2.9441409 0.25718415 0.22945663
2.0513296 0.056125507 0.4798322
1.248052 0.20093144 0.67370647
1.4210322 0.64659768 0.15869236
2.1464579 0.40190291 0.46637225
2.833724 0.98446846 0.31778115
2.7785585 0.61077935 0.022016415
4.7900066 0.97175604 0.99059302
0.092271283 0.98115832 0.0010413099
3.8284156 0.88724381 0.88794583
2.5836339 0.47607198 0.14513001
3.730917 0.88633794 0.20125552
1.130078 0.13594835 0.40218696
4.49861 0.42015478 0.048784651
0.292072 0.84944636 0.45068759
2.6239333 0.41619116 0.43515605
4.2128391 0.97190285 0.045935407
4.3229208 0.92990416 0.017691454
4.2758856 0.94835842 0.99884981
4.2810926 0.71404153 0.88609362
3.7208216 0.23076829 0.3621656
4.4464717 0.97695172 0.24850352
0.4527494 0.20296729 0.38445187
2.4636841 0.10268933 0.80460662
2.7076075 0.16110373 0.65405303
4.9610453 0.68589038 0.070244171
2.1368256 0.52845818 0.042147018
2.3665025 0.39304236 0.97205114
2.4549599 0.24821953 0.92040956
2.4492087 0.10443804 0.63445109
1.8796768 0.84860241 0.86521941
3.6905048 0.73789674 0.84217107
4.933022 0.82844663 0.045138378
1.8552816 0.32118347 0.1478277
0.87831479 0.86270499 0.30893144
4.1485796 0.85491407 0.99482179
4.4998007 0.28227916 0.52327996
4.710536 0.75557971 0.91632229
4.5707917 0.24657166 0.16454184
4.1728396 0.73641342 0.26897988
2.3450952 0.11234879 0.11758228
1.6711922 0.85044974 0.85547906
0.88204771 0.83705419 0.68392569
1.1077396 0.20811054 0.005109163
1.8468781 0.38377351 0.86781412
3.3915353 0.21348949 0.72272819
3.3656442 0.11344965 0.005007335
0.98204404 0.055556815 0.76058704
0.5636555 0.96971518 0.0071586762
1.3863647 0.80428308 0.74357212
2.7312641 0.27330211 0.85592091
3.3191755 0.60754055 0.70637065
2.5965707 0.78395009 0.54342484
1.0161992 0.005498006 0.75153542
1.0417449 0.37487364 0.13530889
0.38081568 0.053180676 0.34879839
3.9944565 0.72630954 0.46224803
4.0194931 0.92271835 0.51780486
2.8224282 0.035449442 0.48752001
2.8582218 0.31272238 0.29180309
1.5760822 0.85897523 0.5651052
0.85568672 0.52281034 0.17264576
4.3875399 0.042124499 0.95659584
2.1046643 0.24536434 0.96209383
0.86234123 0.45371333 0.3369675
1.5388857 0.52987647 0.39014816
3.2828774 0.32876778 0.11645769
0.59411776 0.13266644 0.039176028
3.1831419 0.69715208 0.07462547
0.62074202 0.26879644 0.38734785
2.0797575 0.58401287 0.24632309
4.9052835 0.75515026 0.76913345
0.76851225 0.63265824 0.8112579
0.5514915 0.05359108 0.056622259
0.36196083 0.22605932 0.51033562
2.0467982 0.53383648 0.040212065
3.997539 0.19041198 0.36897984
4.5798273 0.30923554 0.50164628
4.7757077 0.94586396 0.19879837
0.14883497 0.070012338 0.46759483
2.0855742 0.48596382 0.051607706
3.3171897 0.46702051 0.80675793
2.1628568 0.62072301 0.43941617
1.2191465 0.73102129 0.49300724
1.5022577 0.80341345 0.71906656
4.0539355 0.2127731 0.25290304
4.2549963 0.012280909 0.44331503
1.0998954 0.92824644 0.75255054
3.6081266 0.88338792 0.6984145
4.6021185 0.91315496 0.76842684
1.9400927 0.33026978 0.25439066
2.1981311 0.99370772 0.72141117
1.231921 0.4262791 0.34213418
3.4290018 0.67010844 0.073155463
0.89403814 0.97055995 0.87656891
4.4893708 0.78134716 0.089342013
0.75388622 0.63234633 0.10162292
2.9704611 0.85232544 0.029869337
1.7332141 0.57395077 0.9132573
0.22528662 0.49437451 0.8264122
4.067421 0.88239306 0.156682
0.33937415 0.32201931 0.15038973
3.94643 0.56840354 0.57666886
0.65710104 0.25420389 0.24677725
1.0228783 0.43301153 0.21733722
0.40572292 0.33088571 0.99868435
0.85243297 0.48166296 0.63103068
1.3605477 0.075755231 0.48335612
1.5098943 0.42239806 0.057306904
1.0761807 0.46745539 0.5516814
0.20824173 0.28093955 0.43407449
0.99165171 0.34881437 0.7560938
1.7436004 0.13810042 0.32449731
4.6269445 0.26952064 0.5787012
0.8608309 0.4740963 0.011712736
1.947517 0.55524087 0.34259847
1.9409388 0.7257275 0.82426143
0.096092373 0.99783701 0.90001667
2.5128732 0.29981589 0.32241473
2.7994075 0.51505202 0.78987008
0.55781466 0.55670035 0.07080964
2.7281871 0.75503075 0.41962403
1.508656 0.10375081 0.55772442
3.1311426 0.029139742 0.82724506
1.0246488 0.20130593 0.30134135
1.0832125 0.59080935 0.85658228
2.7962046 0.97899711 0.58230972
1.9175118 0.99821562 0.58014679
1.4175951 0.50079018 0.87996268
3.0296686 0.060671702 0.3950147
1.9790192 0.17223462 0.95171505
2.3330674 0.71787202 0.7067458
4.4311876 0.019603251 0.81049663
2.2198098 0.64583176 0.83963633
1.356035 0.85076153 0.040942285
2.8627419 0.067404039 0.63175166
2.1456532 0.62664497 0.61074877
0.057201914 0.01014737 0.60896432
2.9579358 0.29366639 0.10975452
2.3577492 0.89960015 0.17042622
4.3328223 0.29540399 0.34266084
4.0913982 0.76201749 0.060532887
2.6251268 0.64825499 0.080136135
1.6776099 0.092216909 0.72596794
0.87579185 0.36342391 0.57672948
1.0805032 0.93597227 0.64413351
4.2392612 0.36510292 0.27077851
2.293005 0.37654331 0.28092587
0.33782673 0.96813047 0.57459229
0.88659936 0.43968031 0.47419244
1.7387303 0.30624482 0.7695964
3.4520345 0.12452441 0.53161389
3.7546992 0.64954978 0.17986883
4.1553798 0.98507184 0.27208576
2.7852194 0.16023017 0.63550967
0.66886675 0.37633082 0.57148194
3.8895345 0.2241831 0.93658489
