# .PCD v0.7 - Point Cloud Data file format
VERSION 0.7
FIELDS x y z
SIZE 4 4 4
TYPE F F F
COUNT 1 1 1
WIDTH 1452
HEIGHT 1
VIEWPOINT 0 0 0 1 0 0 0
POINTS 1452
DATA ascii
1.8615842 0.23145324 0.013034672
1.8954015 0.2215839 0.023214072
0.038114071 0.0075814724 0.74950737
0.017681837 0.0090847313 0.83107567
0.10615301 0.003950119 0.83573765
0.047011375 0.010448307 0.74722886
0.0096728802 0.19796643 0.57584339
0.027741194 0.24778879 0.62070864
0.03165102 0.22541696 0.61294192
0.018688679 0.12849352 0.53842527
8.2731247e-05 0.17023477 0.49208537
0.34586573 0.98439354 0.10552549
4.9604235 0.99233556 0.45668748
4.9407167 0.30212635 0.010249108
4.8628664 0.33496672 0.018093526
1.6598464 0.86711222 0.024630278
1.5984728 0.81447208 0.0040055513
1.7173027 0.80829334 0.00069659948
1.6823167 0.90770757 0.015379637
1.6500546 0.9098323 0.021557212
4.708075 0.98821813 0.0027094781
4.8003955 0.95311671 0.0058755577
4.7629194 0.99880624 0.0070340037
0.062475443 0.94777942 0.43118849
0.094160557 0.99957168 0.36091387
0.10116816 0.98848128 0.41323277
0.17369008 0.99345517 0.59741861
0.17070413 0.97928131 0.66486621
0.12203026 0.98998749 0.61116135
0.14998078 0.99938154 0.70174402
0.16092992 0.98525757 0.98606682
0.096092463 0.99783701 0.90001667
0.19747615 0.99731141 0.90869665
0.084066391 0.98831069 0.59458429
0.064909935 0.97703636 0.6743384
0.073664188 0.98071778 0.61824924
0.044850349 0.94881517 0.54492933
1.0968643 0.0011651218 0.21082884
1.0594316 0.0015074611 0.10490188
1.0297679 0.0094364285 0.2383495
1.6879238 0.96208692 0.1517038
4.3153687 0.30670822 0.019194603
4.2565975 0.28011906 0.0036411285
4.3310552 0.36878759 0.0010993481
4.2941852 0.37700498 0.0073284805
4.6874399 0.019544274 0.41054112
4.7171631 0.014450133 0.36213067
4.6380134 0.024809837 0.35881296
4.7600245 0.012982994 0.41911307
4.5844269 0.0094491541 0.40709803
4.4779277 0.0010722876 0.34310633
4.5527296 0.0054883659 0.4361231
4.2051997 0.99562049 0.90968555
4.8690991 0.37264735 0.028989315
4.9964223 0.90849549 0.025471926
4.9906588 0.92885935 0.13294381
4.9978828 0.97815943 0.19878033
4.9770808 0.99555641 0.099737465
4.9763741 0.94385308 0.15127707
4.9736538 0.75504416 0.18556562
4.968544 0.73600549 0.14573625
4.9926014 0.71154213 0.19379523
4.6976409 0.99937022 0.37548777
4.6723924 0.99745148 0.26449969
4.7224331 0.99476671 0.29525203
4.9896107 0.56667644 0.31226236
4.9721093 0.57172048 0.22751439
4.9868793 0.52511626 0.26880392
4.9827037 0.63278604 0.24669817
0.32774353 0.008695811 0.13212729
0.13016391 0.015113205 0.17299411
0.09277916 0.017519772 0.20418566
0.13676715 0.019292235 0.16167212
0.24862027 0.12403286 0.99822474
0.26850247 0.12575883 0.98950666
0.2596941 0.15780711 0.99999356
0.012638092 0.019472986 0.93970555
0.048390388 0.022532761 0.97633165
0.053673506 0.0026173294 0.97437835
0.11266851 0.054736614 0.39783737
0.055661201 0.32268173 0.61320215
0.003237009 0.14234903 0.4441711
2.1285088 0.00074517727 0.65001613
2.101505 0.0036796331 0.62949187
2.1346772 1.7285347e-06 0.63216305
2.0770011 0.0050861239 0.64619458
0.46786165 0.14519054 0.99367297
0.42498469 0.12223518 0.98366803
0.44928908 0.096322089 0.98669004
0.32754874 0.12432942 0.98874903
0.2967627 0.17427561 0.98454499
4.8664241 0.80095398 0.97906041
4.9399924 0.84549373 0.96864092
4.9676552 0.99433661 0.95990509
4.9947925 0.59371364 0.83718461
4.8832321 0.48406154 0.99222237
4.9277678 0.38914382 0.99843425
4.8956518 0.36034566 0.99969572
4.9355412 0.061741978 0.98303235
4.9645371 0.1218552 0.976403
4.8969483 0.14019099 0.9828915
4.9947748 0.55496454 0.63895541
4.9924612 0.77481973 0.42506725
4.9957285 0.78881449 0.37050253
4.9530811 0.84680051 0.34815314
0.015586853 0.28494936 0.75073737
0.00075340271 0.87938875 0.77184141
0.016606092 0.91957039 0.7938171
0.040366173 0.9282968 0.71128327
0.0038568974 0.8383984 0.85738212
0.0068557262 0.89062423 0.6360209
0.029043913 0.83896244 0.75095052
0.03350687 0.97117233 0.67906672
0.025653362 0.99572045 0.72880358
0.039978504 0.98084855 0.8290379
0.14608026 0.32045221 0.98063576
0.14238811 0.21608821 0.96066314
0.11204958 0.24730077 0.95403743
0.083516121 0.28501177 0.96503139
0.021185637 0.30736697 0.99479365
0.0062158108 0.28143167 0.93519127
0.0078697205 0.34150553 0.99861085
0.067328215 0.40289366 0.97549617
0.019900322 0.41737884 0.99625427
0.06541872 0.44927388 0.99623919
0.18928766 0.30069268 0.96738744
0.22801065 0.25548375 0.97767258
0.2491219 0.20397711 0.9933542
0.31867504 0.43067646 0.98323637
0.29044652 0.4345603 0.99955237
0.19335198 0.47173545 0.99945092
0.15588832 0.94154811 0.98898357
4.9902315 0.87887651 0.92390859
4.7900066 0.97175604 0.99059302
4.9991431 0.94608223 0.7446515
4.8813362 0.79621649 0.010227859
4.9784422 0.8280794 0.015312672
4.9101467 0.84474015 0.017504036
4.9553523 0.7719326 0.034880459
4.9746537 0.23557386 0.091527253
4.9992561 0.20964238 0.053741276
4.9468694 0.17051956 0.031027168
0.32260299 0.047589034 0.055401176
0.23419929 0.038650364 0.018014997
0.13340735 0.038501233 0.043736905
0.2092793 0.066233337 0.017446339
0.21919727 0.11758292 0.0070536733
2.6341348 0.395316 0.98948282
2.6042581 0.26819503 0.99842149
2.5687203 0.36570317 0.99633205
2.8218317 0.18649691 0.99342811
2.8557007 0.20394701 0.98809958
2.8047035 0.26171702 0.99870223
3.2657862 0.59158099 0.99711698
3.5881879 0.95963961 0.97343129
3.6883283 0.97366202 0.98032939
4.2006564 0.79880893 0.99851096
4.3636799 0.97147304 0.88809532
4.4667764 0.98999351 0.88393176
4.4879889 0.99007553 0.88417345
4.5641971 0.99273503 0.83931607
4.9416151 0.022818834 0.85995948
3.6613779 0.018039733 0.58746123
3.7356534 0.011374086 0.53816015
3.7265227 0.017228931 0.59009296
3.64115 0.00071236491 0.65039325
4.918613 0.98495394 0.50190365
4.4895196 0.96999097 0.94875467
4.4276772 0.95941162 0.98115957
4.6007719 0.98407292 0.97561103
4.4106803 0.82276928 0.99681175
4.6395283 0.94718629 0.99065727
4.6842933 0.91815567 0.99914867
4.6542096 0.9189378 0.99491316
4.7545614 0.98468435 0.90804923
4.6648712 0.96328521 0.55892801
4.6439681 0.99459988 0.62640518
4.6413431 0.99788022 0.62577724
4.6358399 0.96585602 0.56531858
4.7902923 0.99727488 0.60519111
4.802639 0.99564886 0.65990907
4.7507844 0.99468982 0.65329254
4.7825098 0.99575007 0.72153693
4.7410679 0.97235882 0.66993415
4.6115227 0.98501271 0.69207752
4.9857001 0.93277401 0.30378798
4.9779286 0.97835547 0.3103171
4.949852 0.98034215 0.72270834
4.8773036 0.993734 0.75489467
4.943471 0.96421075 0.88492113
4.9968133 0.43775323 0.60301304
4.9822121 0.067532301 0.94545883
4.9923844 0.18241981 0.93581325
0.8743211 0.0034638047 0.29869407
0.8244077 0.0027497709 0.22648671
0.82192385 0.0048906803 0.34535241
0.81571496 0.0014046431 0.3615742
0.86753368 0.00073993206 0.18567637
1.8151824 0.87791735 0.96570396
2.2211282 0.0036827624 0.37143797
2.2487798 0.0011321008 0.2668148
2.1725664 0.003231436 0.34494296
2.8930733 0.096422553 0.996907
2.8430917 0.155936 0.96441483
2.1415362 0.013740867 0.012422919
2.0657914 0.00292629 0.014305115
2.1260004 0.0088099241 0.12275648
0.42230511 0.41346776 0.99844396
0.47621226 0.37697655 0.99861729
0.49557829 0.084471434 0.99583793
0.54652965 0.10964417 0.99725938
0.5232203 0.028973043 0.99647439
0.50290823 0.17642322 0.98257399
0.49502206 0.15676373 0.98377973
1.8130218 0.016270638 0.79665929
1.8490222 0.010567993 0.72172827
1.7789923 0.025946051 0.71535105
1.7634119 0.0052691102 0.83426797
1.7836803 0.057500571 0.98898429
1.777733 0.13300276 0.99436837
1.6726618 0.056381524 0.99754804
1.7967856 0.32859206 0.99506271
1.8298696 0.34003663 0.99502409
1.8543613 0.24617106 0.98795497
1.9150728 0.95590007 0.97363794
1.8762965 0.59323001 0.99807441
1.809724 0.51186699 0.99360222
1.8956574 0.54655176 0.96042281
1.8569982 0.60408872 0.99021667
1.8474747 0.65719926 0.97704619
1.9193108 0.59585172 0.99311978
1.960817 0.63419211 0.98895705
1.7980535 0.74235016 0.99103558
1.7755955 0.73433667 0.99523044
1.8187838 0.72626847 0.99645442
2.1569216 0.73171777 0.99498898
2.0972548 0.8550716 0.9922334
2.0579569 0.78769159 0.99368632
2.1191652 0.7015577 0.98885334
0.98407662 0.075787753 0.96894354
1.0131991 0.16206211 0.97457421
0.9322679 0.14424208 0.98471731
1.0773365 0.14080814 0.98880392
2.3861763 0.010493606 0.0442788
2.3236995 0.0037914217 0.048960865
2.303159 0.0043755174 0.0080851614
2.9629576 0.68421966 0.0015538931
2.9724329 0.7600798 0.0014435053
2.9541783 0.72994852 0.0023347437
3.3604205 0.0063096583 0.55684078
3.3394015 0.0063840747 0.46450835
3.3644621 0.0037593842 0.45885411
2.1018267 0.020334035 0.048115075
1.9745207 0.02410385 0.023480952
1.9214214 0.06564194 0.013908744
1.851017 0.0025617182 0.0065253377
3.5669115 0.051050961 0.016068012
3.5835302 0.070536792 0.016937256
3.5151041 0.079978347 0.024784207
3.6142831 0.042921871 0.027138323
3.6452043 0.090894133 0.040170521
3.6846783 0.029079437 0.012250513
3.4190238 0.022251219 0.02729103
3.5219142 0.056123912 0.068841457
3.3998966 0.063821286 0.011910617
3.379266 0.054955721 0.011470348
1.7839062 0.11248121 0.011350423
3.3055601 0.058196723 0.0063435733
3.3121793 0.11118379 0.014973938
2.3195429 0.021719903 0.006272614
4.9103589 0.0185332 0.092831433
4.8752689 0.055042267 0.036060333
4.6949711 0.024365723 0.024914503
4.7294707 0.04394877 0.028560787
4.7331381 0.010891944 0.10713077
4.6853147 0.027852654 0.035935879
4.37217 0.33587497 0.0030210614
4.793035 0.073044181 0.0024372637
4.7793646 0.10567048 0.0067447722
4.6092606 0.19900641 0.0014104247
4.5739942 0.099199653 0.0037533045
4.6278143 0.10718143 0.0027908683
4.5904636 0.0032004714 0.62402374
4.6742263 0.0082703829 0.62618285
4.6656904 0.0083520114 0.52576745
4.5969009 0.029995918 0.57091266
4.5658641 0.005718708 0.57032025
2.5301096 0.053511947 0.98557568
2.4861827 0.0024066269 0.94729292
2.6113575 0.021183759 0.96902233
2.4224648 0.0039668679 0.96863663
3.1455352 0.038654447 0.98695779
3.0280511 0.10315859 0.99574739
3.0469828 0.0048024356 0.98855871
3.430563 0.0059525669 0.46900678
3.4970431 0.0036761165 0.45564669
3.5240874 0.0021635592 0.54364681
0.0019104481 0.042095542 0.17731079
0.55637765 0.0053908825 0.19044057
0.48910141 0.029005706 0.12725431
0.48838544 0.041912436 0.1544705
0.41097593 0.010657012 0.16874814
0.38070393 0.0016327202 0.29944101
0.3481369 0.00090149045 0.26679498
0.42868853 0.021373779 0.086632609
0.61667097 0.025584728 0.064568102
0.5490129 0.048888296 0.08405894
1.8197191 0.0037989914 0.027311534
1.7988713 0.0096819997 0.038365602
1.7691939 0.0044878423 0.0053990781
2.1875024 0.0062046349 0.29767051
4.4683123 0.021699578 0.23468575
4.3872542 0.0027115941 0.32684547
4.5754051 0.049740285 0.3225174
4.5357981 0.034240663 0.36889219
4.8130655 0.013001233 0.4111445
4.7788234 0.012790084 0.34455532
4.8326812 0.013444632 0.36788663
4.8671618 0.0086092651 0.1969097
4.8380294 0.065085232 0.29375905
4.9667406 0.0060865283 0.38802561
4.9964328 0.058366537 0.4132168
4.9785953 0.093492955 0.42828679
4.9959617 0.16744062 0.38847095
4.9750323 0.120994 0.39672938
4.9970503 0.15006903 0.24885961
4.9751878 0.23852801 0.21004426
4.9943547 0.1512655 0.21769521
4.9884863 0.18808815 0.28995836
4.9999423 0.25511467 0.31993052
4.9680176 0.20281726 0.3615692
4.934412 0.011348754 0.57753599
4.9636493 0.045750052 0.48528323
4.6590576 0.033391595 0.012629688
4.6944623 0.091923594 0.014262736
0.062775612 0.02402094 0.79227906
0.027927876 0.1334666 0.71041852
0.0030903816 0.1028097 0.76406252
0.025626898 0.1665332 0.88400167
0.0063188076 0.096507013 0.86179465
0.13471007 0.0090935528 0.66274297
0.20556593 0.0010943413 0.67188048
0.17652726 0.0090639293 0.70477504
0.34561396 0.98834729 0.040836394
4.9884877 0.93822354 0.6261254
4.9921083 0.966721 0.53445578
4.9938045 0.92426884 0.51555991
4.9813428 0.97659206 0.36519051
4.9104567 0.94472253 0.16536984
4.9103265 0.92136323 0.20846063
4.9349957 0.9460634 0.12544951
4.7441673 0.99476427 0.18788454
4.8167319 0.99229234 0.15792918
4.7608042 0.99844843 0.11279765
4.8636079 0.98207098 0.26317042
4.8235793 0.97251987 0.17794284
4.7997699 0.17760104 0.034702539
4.4597015 0.37332165 0.055074781
4.5279398 0.44076192 0.0018625855
4.4815249 0.33824468 0.046967715
4.4490719 0.33037889 0.028728366
0.94875491 0.9843632 0.0035785735
1.7165451 0.94876021 0.05192703
1.770237 0.96249169 0.0011085868
1.6209673 0.93030113 0.019728869
1.68942 0.88259888 0.028099567
4.7224164 0.98928666 0.024991453
4.6503086 0.99018276 0.015990198
0.00046372414 0.15934703 0.067178011
0.16810203 0.98663378 0.14255044
0.22169614 0.98996758 0.19339806
0.11012721 0.99309307 0.18222764
0.14431429 0.99275547 0.2462877
0.089350939 0.97727734 0.060628772
0.52374029 0.97902089 0.81532526
0.54588115 0.98188961 0.85519695
0.48340702 0.98110861 0.84527302
0.56785893 0.99365419 0.77025717
0.55734169 0.97674024 0.80061436
0.46887875 0.97155869 0.78623074
1.6403517 0.097599357 0.00021463633
1.743675 0.029618591 0.00021618605
1.6526628 0.041188896 0.005360961
1.5883683 0.075422555 0.01283738
0.71094906 0.068282455 0.0071664453
0.84002781 0.06456393 0.0079732835
0.80299604 0.14279032 0.0072531104
0.84529841 0.080315799 0.019366801
0.88048732 0.076941669 0.018626601
0.89583111 0.1425364 0.016287595
1.2343135 0.0043181479 0.16338983
1.3053275 0.0027246177 0.10629994
1.2897695 0.001681447 0.070316583
1.2976558 0.0023995638 0.37254217
1.3999127 0.0070057809 0.452075
1.2879379 0.0011850595 0.45619851
1.6784186 0.00087884068 0.16101947
1.5998935 0.0022432208 0.23658255
1.6443162 0.0061113536 0.2569119
1.7665967 0.0026279986 0.22214797
1.615099 0.98838329 0.16115311
1.5813996 0.98346978 0.17027795
3.5840383 0.10327139 0.037462056
4.9122548 0.017401308 0.48701769
4.8434167 0.021452993 0.51804829
4.8673506 0.039876848 0.40548757
4.8895035 0.037254393 0.40624991
4.523665 0.0081350505 0.39164409
4.3818088 0.9253906 0.97656912
4.3462143 0.91229719 0.96486849
4.2939634 0.76472604 0.99640447
4.3687091 0.74515486 0.98411262
4.3163409 0.75408649 0.97007829
4.325285 0.65289843 0.97434098
0.93104303 0.99314028 0.14758146
0.97531152 0.99684471 0.18743193
0.71623278 0.98394364 0.040418625
0.66411233 0.9869501 0.14386794
0.65638876 0.99340868 0.012596488
0.59679043 0.97874135 0.47116891
0.53101468 0.99539512 0.39435643
0.52022445 0.97045875 0.45521745
0.5768224 0.9689641 0.46692112
0.4842751 0.98945177 0.24775857
1.7343796 0.99420881 0.46945316
1.6596811 0.9789477 0.52768242
1.6834592 0.99284303 0.45991275
1.7532276 0.9900499 0.51455086
1.5655762 0.96515846 0.18540013
1.9230487 0.97614527 0.055250585
2.0171604 0.98308116 0.073189288
2.0059109 0.98498589 0.10154349
2.0103488 0.99111879 0.11039379
2.041975 0.99289781 0.11640382
2.0511091 0.99963045 0.1286239
1.858344 0.99927485 0.31620356
1.8786669 0.99458748 0.33332771
1.8065896 0.99940586 0.36834645
1.7203404 0.99487329 0.30371389
4.92099 0.50638956 0.012059212
4.994329 0.89394301 0.23491138
4.974936 0.8459723 0.21141347
4.9891524 0.94539702 0.032891691
4.9374466 0.9197135 0.014766335
4.996223 0.73954934 0.019548982
4.9957466 0.6706695 0.13098219
4.9784088 0.65310889 0.079671621
4.9852133 0.74324358 0.031738639
4.8690925 0.78786367 0.0028858483
4.9824138 0.60460776 0.10995826
4.9820061 0.56943536 0.058844537
4.9742932 0.56482375 0.13302287
4.977632 0.81517851 0.26905897
4.9695063 0.78498697 0.19882682
4.9774508 0.62913156 0.29737613
4.9842358 0.63913774 0.33247206
4.9917898 0.66972411 0.32488805
4.9806395 0.56695223 0.19104776
4.9971905 0.50951332 0.21746016
0.77604926 0.010457158 0.36239022
0.63925898 0.001342237 0.35667595
0.66270149 0.0029824674 0.41757125
0.7555666 0.15031281 0.9819361
0.78475809 0.14184475 0.99609041
0.71251321 0.10745648 0.98636675
0.27015877 0.039664358 0.22204882
0.31682563 0.041079819 0.18517247
0.012245893 0.11612567 0.33468926
0.13982987 0.76582032 0.97420621
0.37141967 0.21983472 0.99804902
0.42956972 0.2155565 0.98033088
0.43108273 0.16882795 0.99356872
0.24508977 0.0025686026 0.92792952
0.27942228 0.046788096 0.9688468
0.2861352 0.013533086 0.91659969
0.037276983 0.018860608 0.94325715
0.074095964 0.032180279 0.91490799
0.035728216 0.19687414 0.51202047
0.039462566 0.22874862 0.45505974
0.01462841 0.20651281 0.43525174
0.015967846 0.33608502 0.39129028
0.012918711 0.28910452 0.37507185
0.010627031 0.33734381 0.33442417
0.36071277 0.0014310181 0.97629714
0.030361176 0.1906904 0.23312676
0.011824369 0.22056243 0.27470627
0.026615858 0.16419697 0.21781603
0.070728779 0.17471024 0.95719004
0.64491212 0.097912878 0.98373568
0.61668444 0.13472751 0.99915421
0.66807711 0.064365864 0.99633038
0.74712241 0.015938073 0.80895805
0.73952556 0.027384341 0.90155739
0.82542276 0.008679986 0.89008254
0.79399645 0.034742057 0.83439296
0.36988831 0.002992183 0.97731119
4.7822065 0.9231981 0.97993767
4.9711795 0.72891122 0.98401487
4.8871026 0.73444629 0.96052921
4.8384738 0.69612569 0.98440593
4.8790374 0.96140623 0.95093018
4.9882994 0.79513168 0.85574394
4.9836216 0.84490269 0.85273176
4.9822621 0.80931455 0.8057633
4.9809861 0.74548447 0.80103081
4.6843238 0.78406233 0.98173296
4.6829553 0.81970203 0.9885
4.7115998 0.81169575 0.98581868
4.9930062 0.47989854 0.75701594
4.9958515 0.44304988 0.74187088
4.8820381 0.41660929 0.98163748
4.8087015 0.3658269 0.99982685
1.9832693 0.096917927 0.99125212
1.9448273 0.012441635 0.98110306
4.9287996 0.021259129 0.94089109
4.8722229 0.12039271 0.97861463
4.7558212 0.011980057 0.48361993
4.7203307 0.0094060302 0.69833916
4.8152885 0.0072265565 0.64804399
4.7511673 0.0023532808 0.75389594
4.7828207 0.010745585 0.62047374
4.8600206 0.016849518 0.74243987
4.8804059 0.04720974 0.80985451
4.8340936 0.010123283 0.63735509
4.4436269 0.019931644 0.98064417
4.4560585 0.033476859 0.91030562
4.5032797 0.003465265 0.99992239
4.5302963 0.012321502 0.8949458
4.3906045 0.018013179 0.96398675
4.9528475 0.68433923 0.74116296
4.9920583 0.7778061 0.46824846
4.9948015 0.70458841 0.5316689
4.975327 0.78415638 0.48397011
4.9897995 0.79465348 0.47506997
4.9757442 0.86174947 0.50598246
4.8566699 0.98011851 0.66697919
4.9919887 0.54967356 0.62886101
4.9853811 0.56250471 0.5918473
4.9809384 0.58741546 0.62862659
4.9766078 0.70740807 0.63470316
4.9856982 0.75872141 0.62034178
4.9753327 0.75564748 0.64850277
4.9912391 0.78505832 0.7278105
4.9707851 0.62959558 0.59839135
0.0097007751 0.33523816 0.90658414
0.0077660084 0.25740814 0.80560815
0.020200014 0.34638029 0.87696034
0.00032448769 0.41968858 0.88631827
0.015814543 0.28110045 0.92021948
0.00029015541 0.37455904 0.99880373
0.011590481 0.3972019 0.92594373
0.0021994114 0.58470511 0.11351863
0.0052695274 0.6888178 0.027589589
0.0062878132 0.59680933 0.0037384331
0.0048267841 0.80142522 0.72496098
0.0022110939 0.94869161 0.65652931
0.015354395 0.82909834 0.77052963
0.028178692 0.83305663 0.82970327
0.034008741 0.7404213 0.81555957
0.0012280941 0.70487887 0.76540315
0.01068902 0.7201674 0.84803301
0.089039087 0.53928399 0.98846811
0.14485621 0.61932808 0.98858631
0.1146915 0.62845236 0.98799044
0.015546322 0.5955112 0.99736291
0.041964054 0.5597868 0.98264849
0.0054349899 0.59177172 0.99294436
0.0059978962 0.50672907 0.98862684
0.21087241 0.98780763 0.64264327
0.2147429 0.99875271 0.57657576
0.20669103 0.98873436 0.72954512
0.17968488 0.99713665 0.78142625
0.26362658 0.99127656 0.72909766
0.10400224 0.98150223 0.69943899
0.27003312 0.99417317 0.64488602
0.12349105 0.975128 0.84464997
0.024293423 0.83144158 0.99387652
0.034774542 0.79707801 0.98388571
0.0007045269 0.84865779 0.92183524
0.023866653 0.33552933 0.99940366
0.046136379 0.30581647 0.99048275
0.083484173 0.43656924 0.9800179
0.048652649 0.34521323 0.96775204
0.18106818 0.22980636 0.95635164
0.19893169 0.73883498 0.99738407
0.20566106 0.59472114 0.98873585
0.19036293 0.69179273 0.98340935
0.28051138 0.76762879 0.99391556
0.41592693 0.52288908 0.99051714
0.39315033 0.5277642 0.99463165
0.45128584 0.45698065 0.98300028
0.654405 0.38698202 0.99701816
0.71444392 0.32930851 0.99924117
0.73527336 0.34210235 0.99651754
0.75496042 0.44804367 0.99084127
0.70331836 0.14908832 0.97292238
0.43587923 0.99526739 0.84425688
0.46683383 0.978172 0.89976233
0.41970038 0.99330282 0.76181281
0.39001489 0.79639846 0.98341095
0.38363814 0.70276862 0.99462676
0.32097673 0.73866862 0.99570364
0.34253573 0.77112359 0.97527581
0.30977511 0.78580809 0.97153217
4.9808493 0.86261791 0.86492234
4.9646754 0.85335189 0.95825779
4.844615 0.9776842 0.93344402
4.9817686 0.50956553 0.13904253
4.9721603 0.87217742 0.065028429
4.9693928 0.80034602 0.15463454
4.9696975 0.83825684 0.16858357
4.9304352 0.25018805 0.02223441
4.9494696 0.31877977 0.091633052
4.9825392 0.12031761 0.17909217
4.9821019 0.11430514 0.18875679
4.9855323 0.18679559 0.088690758
4.9557528 0.045001268 0.060338289
4.9657345 0.11311042 0.045557976
4.9614277 0.10762191 0.042853951
4.957602 0.017254084 0.20081869
4.9838805 0.0067714453 0.22720316
4.9871349 0.02401486 0.22037855
0.018498182 0.11812028 0.21754989
0.026319981 0.041255981 0.28810793
0.3388629 0.072672993 0.0061289072
0.45214295 0.086457938 0.017438829
0.44036627 0.19630969 0.002820164
0.35894799 0.040287852 0.025711715
0.12333179 0.043908268 0.094980806
2.4055674 0.9362061 0.99352872
2.2950909 0.95846885 0.99587566
2.3780315 0.99860275 0.98094064
2.5903466 0.34142262 0.98913395
2.6998975 0.24829111 0.99839967
2.7052042 0.1899868 0.99883938
2.7441638 0.32475126 0.99611628
2.7810905 0.3948065 0.99502957
2.7203836 0.37249982 0.97022313
2.6681614 0.3724649 0.9764393
2.8632214 0.49005666 0.99581838
2.8038733 0.51446998 0.99924946
2.9437375 0.37800401 0.99106121
2.9579244 0.47080538 0.98254305
3.1147814 0.82615364 0.99324834
3.1692433 0.87020409 0.99760175
3.0924222 0.76424098 0.99400055
3.0365767 0.44525993 0.96941984
2.9864693 0.40290141 0.96667522
3.1680427 0.58760524 0.99840963
3.1771753 0.50799727 0.99809259
3.1199918 0.58191574 0.99893194
2.1559002 0.9847402 0.99175137
2.1270373 0.99353355 0.97322601
2.1529994 0.98293853 0.99481559
2.29427 0.97260582 0.95067316
2.3634779 0.95022696 0.93550247
2.5082521 0.96071899 0.9605096
2.433044 0.95036179 0.93787634
2.4230771 0.95911157 0.91578126
3.583132 0.97999567 0.96002483
3.4922419 0.99431705 0.99589789
3.6695027 0.99910736 0.94059491
4.1485796 0.85491407 0.99482179
4.2267342 0.83471245 0.98278689
4.3304334 0.81280929 0.99707192
4.2645998 0.80816239 0.98678637
3.2665854 0.85046804 0.98989916
3.2474389 0.77857757 0.98986185
3.235605 0.79092264 0.98838484
4.2611194 0.98540819 0.89858311
4.2459817 0.98839903 0.86481827
4.3398547 0.96016115 0.75423992
4.3706126 0.97089553 0.73860377
4.333024 0.98980951 0.81852037
4.6900725 0.99462849 0.78565294
4.7639456 0.98824668 0.76535267
3.7874048 0.006516844 0.81562942
3.7873993 0.0081429183 0.85568959
3.703896 0.0042109191 0.87509531
3.6451399 0.0035507083 0.51176536
3.6125736 0.0048028231 0.60395843
3.6943507 0.0041074157 0.48365384
3.552582 0.01103279 0.54360688
3.626827 0.014422476 0.53325886
3.6849227 0.0010780692 0.94449824
3.7419078 0.015910596 0.95943862
3.7947431 0.014357299 0.88779151
4.0207658 0.011709273 0.47102988
4.1065073 0.0079330802 0.529814
4.104538 0.003171742 0.43236953
4.9162831 0.98042113 0.57971096
4.9379754 0.99067962 0.43368697
4.8209162 0.99006617 0.41568547
4.8052692 0.9791652 0.50849783
4.7741332 0.9932301 0.50172657
4.5040231 0.98675436 0.92354864
4.4035149 0.70900846 0.99687338
4.5787582 0.98463267 0.92080295
4.6695213 0.97474957 0.88388461
4.581799 0.98255998 0.92247075
4.619329 0.85053086 0.96086574
4.7966928 0.9866482 0.56154811
4.6863461 0.93910122 0.73258972
4.8782525 0.99656636 0.79657406
4.741055 0.9872632 0.86692238
4.8325305 0.99154049 0.77107042
4.8359509 0.99190748 0.015299082
4.9248962 0.9836002 0.060372859
4.8105216 0.98658502 0.043756753
4.8534451 0.96721542 0.068653613
4.8329277 0.94527185 0.012707323
4.8519087 0.84590662 0.00050830841
4.9598041 0.81790978 0.52832413
4.9895787 0.87942261 0.51631546
4.9742365 0.81112921 0.69121611
4.9834003 0.86239475 0.65397137
4.9943252 0.82444507 0.75338233
4.9041915 0.97449875 0.87700307
4.9882741 0.55830389 0.66595328
4.9755731 0.23909089 0.96242303
4.9782262 0.25937068 0.91588974
4.9617529 0.30812222 0.93422985
4.9619565 0.21776047 0.96458066
4.9734068 0.20830563 0.92060775
2.0271978 0.018407285 0.10640395
0.84336114 0.028226346 0.083750427
0.82208264 0.01719743 0.11515194
0.79761112 0.013253003 0.3363643
0.95263672 0.0055908859 0.23236498
0.95990074 0.00060415268 0.2891905
0.97036326 0.00022318959 0.30686212
0.87681007 0.023368835 0.25282851
0.73624969 0.037323862 0.64351839
0.78079104 0.028161824 0.62155372
0.7315824 0.019041985 0.60321134
0.61256897 0.005059123 0.52680963
0.59238029 0.018850088 0.47816393
0.55662048 0.0062137544 0.48197374
0.68542218 0.023161739 0.59789324
0.70629442 0.042938769 0.5128473
0.68372762 0.0077298284 0.29986608
0.63354588 0.018062979 0.44303045
0.693995 0.01799199 0.46130607
1.8069493 0.77325416 0.97278833
1.8989931 0.81445307 0.98304838
1.6052474 0.88867265 0.06049481
1.3958552 0.98838133 0.0060685873
1.383332 0.99948227 0.054663897
1.425174 0.99209857 0.063744903
2.6674943 0.0088459253 0.60469955
2.7496376 0.010100275 0.63089037
2.7784874 0.0010243952 0.53643501
2.7109962 0.0022956729 0.7001068
2.5933137 0.00024592876 0.71325845
2.7413509 0.034760624 0.58867282
2.730376 0.023641258 0.52327383
2.6367455 0.011198431 0.5277518
2.5236287 0.017405272 0.21075726
2.4734507 0.0048864782 0.22165945
2.1914184 0.012479067 0.22330827
2.1855371 0.0080826879 0.28425637
2.2378175 0.0013257265 0.13084215
1.6249627 0.0039364398 0.37458664
1.6237419 0.0049024224 0.49769211
1.6767278 0.0036201179 0.41619655
1.5470409 0.00054699183 0.28297645
0.99085915 0.2269271 0.99765581
0.92077458 0.23823082 0.98313183
0.88198709 0.12801278 0.99716479
0.36449003 0.41601342 0.97916245
0.43227506 0.060293287 0.98978114
0.56051302 0.085764259 0.98443609
0.7052561 0.45514449 0.97499323
0.69177735 0.52318704 0.99758148
0.58844674 0.66363823 0.99624896
0.65824914 0.61662638 0.97637147
0.5484668 0.57243729 0.99995565
0.92258918 0.28689802 0.99349022
0.97102439 0.26984155 0.99564523
0.42651176 0.96937948 0.98325175
0.37036443 0.9168691 0.9895215
0.33474636 0.96047604 0.99681044
0.39795518 0.93206531 0.97638041
0.37799001 0.9770118 0.96348435
0.43785596 0.97651941 0.92811072
1.3101848 0.98607934 0.9390642
1.2430241 0.9497301 0.99619406
1.2876089 0.90704548 0.99970633
0.63046086 0.95964974 0.97841066
0.56225395 0.95723832 0.97523713
0.5855695 0.97504103 0.95437229
1.6605358 0.011692584 0.37366468
2.5854304 0.014913797 0.91727167
2.3323839 0.42984962 0.9975329
2.2133145 0.39390951 0.99426883
2.2337127 0.47736141 0.99516487
2.2361968 0.35769677 0.97733563
2.125474 0.4853369 0.98779327
2.211545 0.54433179 0.98644358
2.2024798 0.42028701 0.98071098
1.9502519 0.93271619 0.98145324
1.4874071 0.82970715 0.99703801
1.6008967 0.769247 0.99717474
1.5565203 0.75063622 0.99792719
1.1637245 0.0036827624 0.77893388
1.1728277 0.02157405 0.7273851
1.1880934 0.00072830915 0.68940848
1.1414274 0.021513999 0.71413761
1.1072387 0.1067065 0.98861974
1.0575904 0.091001958 0.96925694
1.148231 0.060725182 0.98531038
1.0576005 0.11914712 0.9664017
2.5710914 0.042485207 0.14729688
2.4829566 0.059763461 0.041327268
2.3841667 0.015727997 0.091112256
2.4117923 0.024076104 0.021324366
2.430387 0.0814026 0.0026312172
2.4113524 0.027160227 0.020436674
4.6254873 0.95019233 0.0018318295
4.6148343 0.94839627 0.0063285828
4.5865211 0.99005699 0.023839772
3.4825401 0.32124972 0.0041321218
3.5178533 0.22067854 0.0064256191
3.4999964 0.23105314 0.0086739063
2.6411459 0.97894812 0.026499152
2.6537066 0.95702517 0.0040243268
2.749603 0.99702156 0.0069385767
2.5333607 0.98355055 0.013205439
3.4288671 0.014242142 0.58939362
3.5027421 0.013293177 0.56536019
3.4854095 0.03004691 0.54659379
3.4794774 0.0076902807 0.61848116
3.2867508 0.0034606159 0.73872131
3.2627115 0.00087082386 0.63770336
3.349735 0.0089468956 0.74046981
3.3121865 0.013656706 0.63649631
3.2919197 0.0067112148 0.35045061
3.0405085 0.00088843703 0.53950965
2.9915597 0.0051360726 0.59209865
2.9723718 0.0023296177 0.48759779
2.8836176 0.00082418323 0.67076588
2.9365234 0.0030525625 0.70657527
2.8678787 0.032361358 0.0047531128
2.8567863 0.080248952 0.0076849163
2.7715015 0.035726905 0.011832416
3.3544462 0.00027859211 0.13955575
3.3582256 0.019511968 0.11994267
2.0866418 0.018613577 0.054358989
3.3177361 0.00040429831 0.29528353
3.2995632 0.0022474229 0.27682793
3.2733023 0.011041492 0.28320354
4.2658935 0.18960801 0.0015004277
3.3887861 0.21810192 0.0058140457
3.3059368 0.20513937 0.0034775734
3.4049821 0.023868054 0.020675391
3.4322953 0.11538568 0.022693723
3.4620619 0.15895018 0.016317844
1.7683675 0.091023386 0.0073902607
1.6726696 0.15923771 0.0081830025
1.7833161 0.074841172 0.035387009
1.7070599 0.29204929 0.0081734955
1.7634319 0.24490073 0.030566156
1.7380613 0.14354682 0.017498404
1.7475963 0.11572307 0.019450009
3.2424824 0.068204999 0.0087065697
2.9611771 0.009637177 0.0123505
2.9847896 0.3268044 0.00076770782
3.0043766 0.28184342 0.0026283264
2.9300094 0.21869674 0.00046062469
3.0016062 0.33848011 0.0022743344
2.6316926 0.022341609 0.047620982
2.5534236 0.087802351 0.0033684671
2.1902239 0.19888747 0.01178813
2.1935604 0.26073122 0.032992721
2.2332559 0.25093061 0.015644372
4.5994902 0.0014737248 0.12222606
4.5732036 0.0027763546 0.066700757
0.98498821 0.042033523 0.0090535283
0.92405772 0.082029372 0.04504776
0.132339 0.15383038 0.028990388
4.9241266 0.095867097 0.026437134
4.8756838 0.01759094 0.079736441
4.411552 0.30044252 0.016964674
4.3769498 0.17945659 0.0069446266
4.444716 0.21556857 0.0085407794
4.8295021 0.089915603 0.012547612
4.554388 0.3251999 0.0031414628
4.6584601 0.153218 0.0025864542
4.5238824 0.014586657 0.58661163
4.4521804 0.0023036301 0.53306329
4.8840804 0.0038542151 0.63998544
2.7981155 0.0086772144 0.42211303
2.8749702 0.012335241 0.33615738
2.8521054 0.026798218 0.44483829
3.1085823 0.20736194 0.99270833
3.1848574 0.19034019 0.99243355
3.1347868 0.24425685 0.99982667
2.8450084 0.01551643 0.75129664
2.8149297 0.008262217 0.71602839
2.8326309 0.01042825 0.80672449
4.1224928 0.089070499 0.0077765286
4.0637422 0.0050160885 0.016389072
4.0293336 0.095265001 0.015804678
3.4305582 0.036551863 0.50291008
0.47356415 0.02793327 0.51603907
0.48759246 0.0021130443 0.56680107
0.765468 0.11655691 0.018059254
0.78455317 0.13278115 0.015726626
0.79801857 0.0050601065 0.13467938
0.74224436 0.019401997 0.055387735
2.110815 0.019458503 0.98588258
2.1160653 0.0092271268 0.93882889
1.8566478 0.032263815 0.066485137
4.9885817 0.39090401 0.5210759
4.9776049 0.42158788 0.55790776
4.9906721 0.18017203 0.52780932
4.9964495 0.17916495 0.59617943
4.7335925 0.0059672892 0.29363739
4.776154 0.00019785762 0.24201542
4.8450003 0.0076701045 0.37280592
4.987597 0.072718889 0.25924441
4.9936638 0.11461133 0.82726133
4.9902639 0.16847014 0.78856635
4.9963975 0.079004943 0.72874379
4.6400433 0.079810888 0.0059481263
4.6125498 0.05190438 0.031057119
4.7177958 0.12453577 0.0076174736
1.6204261 0.0046705306 0.16775152
1.6564255 0.0010056198 0.071276456
1.8364662 0.17841586 0.034970134
1.7898771 0.19616812 0.057771713
1.71373 0.24810705 0.034511089
1.6749674 0.20962289 0.042918473
1.7936819 0.4059509 0.0096187294
1.7768438 0.50351059 0.00012362003
1.866076 0.49804175 0.0038264394
1.7999568 0.46292585 0.017129719
0.61442971 0.018773615 0.96748662
0.61597991 0.026708603 0.94387907
0.66056573 0.028990775 0.96879691
0.024503231 0.027125031 0.74674004
0.015969515 0.06177029 0.75245279
0.035406828 0.22975722 0.63572913
0.02050066 0.24260303 0.6746431
0.028260469 0.088893205 0.72271341
0.040540218 0.095507383 0.64077473
0.0074062347 0.17494661 0.92392051
0.00014233589 0.25165743 0.27637619
0.002612114 0.36090428 0.26584813
0.01589036 0.34800154 0.3053132
0.034472704 0.090388596 0.6041761
0.0090324879 0.10002777 0.57015157
0.018523216 0.060486257 0.50406653
0.12868237 0.0067411363 0.5760541
0.057201862 0.010147363 0.60896432
0.017290354 0.064341575 0.495408
0.021659851 0.017487049 0.53195113
0.095996857 0.017021805 0.70885712
0.16732192 0.024436682 0.72132003
0.31924558 0.99263698 0.22190079
0.28628063 0.99433178 0.2401855
0.30201936 0.99458361 0.27620661
0.28240657 0.89662915 0.020823658
0.35166001 0.89969921 0.020449728
0.28454161 0.90470737 0.022580624
0.49767172 0.99191231 0.021466583
0.5806812 0.99390572 0.036576062
0.43103528 0.98853236 0.061258614
0.56463969 0.97290897 0.077680171
4.9844522 0.96444905 0.41575024
4.9124551 0.97631711 0.29596949
4.7704349 0.98726177 0.18857646
4.6933694 0.99449497 0.23291796
4.9022517 0.98926657 0.28616047
4.7336321 0.99559164 0.35008132
4.7754698 0.97790575 0.328473
2.1159744 0.9333666 0.99172127
2.1637762 0.87169206 0.97342283
2.1571453 0.99042147 0.72632205
2.0477285 0.99589354 0.75947076
2.1553717 0.9954505 0.82919109
2.1244206 0.97340077 0.80173922
4.7996521 0.16380081 0.028890014
4.7433186 0.23526657 0.0065945983
4.7345114 0.23398834 0.0084946156
4.8241997 0.81450963 0.0071738362
4.851418 0.68175954 0.017313182
4.7365708 0.71518332 0.00010722876
4.8623347 0.72389436 0.024399459
4.7785544 0.94635564 0.0054431558
4.7680464 0.86424685 0.036368251
4.7377791 0.84861326 0.0065092742
4.7324953 0.92955613 0.021970749
0.013042927 0.88643187 0.010120481
0.0075976849 0.88213027 0.015983194
0.017116785 0.97913986 0.0025750697
0.014212132 0.84812981 0.00019359589
0.28517747 0.62848783 0.012056947
0.21033645 0.69051927 0.0046511889
0.2616322 0.71578687 0.058357328
0.16312504 0.96159565 0.066661716
0.51744449 0.12190735 0.0055506527
0.51679552 0.94329751 0.027050704
0.47302365 0.96316057 0.024291575
0.47538233 0.91335207 0.015221626
0.5636555 0.96971518 0.0071586967
0.48692322 0.79514557 0.0010634661
0.39996076 0.856453 0.00068235397
0.67651701 0.40008748 0.0071249604
0.65468276 0.51117587 0.010062546
0.59989083 0.42578232 0.0014291406
0.74651086 0.42123342 0.00079482794
0.73603058 0.35868788 0.0026382804
0.001752615 0.64028811 0.48541802
0.0021407604 0.64372015 0.55937606
0.0015046597 0.56349844 0.53077847
0.98917198 0.98377287 0.14674336
1.0781904 0.99276841 0.10195315
1.6529698 0.92631632 0.035835594
2.9096665 0.98464739 0.054883391
2.8343477 0.92814875 0.040257156
2.8841045 0.99364245 0.058897227
2.7769973 0.93677074 0.016900331
3.0435214 0.99615163 0.052762717
2.9337921 0.99173641 0.11368677
1.8972852 0.45545644 0.00052577257
0.010103703 0.15011233 0.023162752
0.19001007 0.97511035 0.14989725
0.34861064 0.98820227 0.33736265
0.28641605 0.99587774 0.39442325
0.37912059 0.99019426 0.27815565
0.37902141 0.98924828 0.28093472
0.48156691 0.99669826 0.27318519
0.53710091 0.97164941 0.74817163
0.52144516 0.96969199 0.6900003
0.50002563 0.97763246 0.9029327
0.4910078 0.97488791 0.97381705
0.003898859 0.93286473 0.38778263
0.0016264915 0.96376258 0.33253133
1.4613523 0.97302514 0.042600632
1.8140956 0.99290538 0.93638819
1.7952139 0.98987472 0.92030966
1.8136388 0.97839135 0.89597344
1.8777337 0.98996598 0.96227032
1.8477352 0.9807151 0.94969112
1.647146 0.97596139 0.86618233
1.5704811 0.99945855 0.85516185
1.5738297 0.99640673 0.84437299
1.6233208 0.97960609 0.89588964
1.0381922 0.82253855 0.020022094
0.9719944 0.84672397 0.00082564354
1.0575037 0.84092408 0.0049466789
0.64247549 0.46965599 0.018075228
0.425596 0.6603809 0.026805997
0.450073 0.62151814 0.0020986199
0.49890935 0.6667819 0.006002605
0.50864172 0.99506521 0.14638171
1.5049906 0.058111548 0.0082013607
1.5038605 0.027337879 0.0050710738
1.4179622 0.099633455 0.0015850663
2.4643781 0.089113176 0.0011293292
1.011228 0.044123054 0.15255582
1.4290252 0.013831079 0.37431303
1.475064 0.0050105155 0.43454239
1.3330992 0.025853038 0.39869756
1.3894618 0.034380287 0.35591638
1.7212739 0.024260789 0.23351747
1.7589552 0.0099146962 0.070170373
1.8717095 0.0026095212 0.16959777
1.9447225 0.0083991289 0.25158322
1.8827677 0.011226326 0.22478473
1.8333008 0.031352609 0.24640626
1.8138714 0.024925321 0.22351196
1.7905039 0.52725601 0.015366763
1.7490335 0.99618101 0.46973753
1.7568641 0.97538388 0.15034193
1.6079229 0.97809571 0.13818076
1.6346354 0.98211288 0.21538401
1.6740478 0.77630657 0.0077325106
1.6422048 0.72830623 0.017910987
1.6829829 0.71947998 0.016049087
1.6133567 0.67844933 0.0012733936
4.5527821 0.44269788 0.002861768
4.5554781 0.4774811 0.0090605915
4.5722752 0.44506404 0.010934293
4.5095387 0.014555484 0.37224895
4.406641 0.93549985 0.9793368
4.1446943 0.9680838 0.85133463
4.1989336 0.97857052 0.80212355
4.648097 0.0068072975 0.82180935
4.6673036 0.0032234192 0.83821982
0.89140725 0.98447895 0.26369876
0.84023035 0.99255472 0.15920004
0.66071928 0.97990721 0.093307167
0.48731589 0.99573487 0.53494102
0.4731636 0.99235123 0.54311967
0.49577117 0.99829787 0.58520406
0.48110938 0.96313697 0.36525008
0.55531526 0.99063569 0.35077634
0.62863111 0.99742121 0.44589153
0.60655177 0.98897451 0.38608852
1.6813684 0.98629838 0.33825967
1.6064485 0.98105466 0.29733777
1.8168485 0.99494243 0.54562217
1.8016901 0.98593724 0.43327963
1.580462 0.98334235 0.30095667
1.4752185 0.99946499 0.24396518
2.0841992 0.99137414 0.038717479
2.1348052 0.99147689 0.031614006
2.146919 0.99299133 0.017607749
4.5542917 0.94030708 0.027011275
4.4409118 0.51077014 0.014471501
2.2277069 0.89706278 0.0035961568
2.2655957 0.98834902 0.00047415495
2.1891861 0.94084334 0.025203109
2.1871374 0.94519818 0.038279682
2.2652576 0.95958674 0.021666855
2.2959044 0.99246818 0.050155818
2.2880917 0.9564817 0.0010320544
2.7835875 0.98954898 0.070825666
2.6714828 0.99552274 0.10067156
2.7436128 0.99340785 0.15727538
3.2096062 0.97878385 0.015414238
3.2734025 0.98907077 0.065386385
3.2188265 0.99925089 0.094787747
4.9650283 0.38355249 0.30969292
4.9856901 0.39132291 0.32789248
4.9976187 0.41251892 0.32258561
4.9949589 0.30591106 0.29859129
4.9201555 0.59646124 0.033068091
4.8796082 0.86521894 0.00037842989
4.9654069 0.83343107 0.089979172
4.9797063 0.98788369 0.079682767
4.9918151 0.93322641 0.020203441
4.9493227 0.69074178 0.0065535605
4.9748955 0.81089967 0.094510496
4.9869919 0.70029163 0.10528785
4.9652085 0.78344667 0.22100428
4.49861 0.42015475 0.048784643
4.4799767 0.56178302 0.024848163
4.5991611 0.56286162 0.022530437
4.5737343 0.63407797 0.0062517226
4.3957682 0.585536 0.010430574
4.512392 0.68534333 0.00057440996
3.0417895 0.99130332 0.86509413
3.1228626 0.99721622 0.94559234
3.0558197 0.99720383 0.8487913
4.9801288 0.38614565 0.46633565
4.9864073 0.34519404 0.42929202
4.9659319 0.4094187 0.20236894
4.9887381 0.6282171 0.37109473
4.977046 0.50632566 0.29816291
4.9950728 0.54276258 0.36212727
4.9798737 0.72779286 0.40536416
0.74842882 0.20107651 0.97455961
0.4039762 0.014806896 0.21264508
0.4277451 0.028432012 0.28434816
0.463485 0.0089683533 0.30813462
0.028594017 0.090704858 0.33589715
0.014245987 0.40145528 0.27198574
0.09565711 0.10604775 0.30771419
0.029354811 0.77715021 0.93750942
0.22250533 0.018205702 0.77045953
0.26911068 0.043312192 0.79672056
0.24325752 0.024801075 0.84004509
0.26489592 0.019426912 0.72009236
0.36102867 0.0030760765 0.76790679
0.21083426 0.0097235441 0.86931407
0.3748498 0.28168654 0.98333627
0.41706109 0.014253885 0.93166125
0.27815604 0.019752413 0.86106163
0.36052275 0.008818686 0.83790952
0.33993626 0.034897 0.82674617
0.98811018 0.0025549531 0.93221098
0.9204179 0.0074870884 0.98697102
1.0317519 0.014122427 0.93403596
0.75608349 0.0042523146 0.52926332
0.81221318 0.011544764 0.47371051
0.8701036 0.0055187345 0.53023851
0.80258846 0.0049643219 0.98202664
0.86909831 0.00098830462 0.97489297
0.85414922 0.0027670562 0.96370703
0.86379492 0.00087204576 0.99648082
0.21048641 0.017819792 0.99401355
0.10219216 0.071861982 0.98924971
0.16097784 0.014946729 0.98527437
0.16323543 0.10764846 0.95211029
0.20108557 0.14098448 0.95553422
0.0059230328 0.28330225 0.54561776
0.04844451 0.26679951 0.49854502
0.025071383 0.18710154 0.40270206
0.029283762 0.32594383 0.54874617
0.0096976757 0.40795422 0.52500033
0.029352903 0.46737111 0.52377075
0.01644206 0.46371031 0.45996553
0.0080199242 0.50735968 0.48622489
0.010453224 0.43256092 0.43729979
0.0082333088 0.43223232 0.60409528
0.28439617 0.01015988 0.67118818
0.22944403 0.014148623 0.65996981
0.29379344 0.013881087 0.62221158
0.30592465 0.0028490126 0.59870046
0.1193161 0.0050761998 0.48725417
0.36164403 0.0041615963 0.92306912
0.42591858 0.0020890832 0.86279768
0.28441143 0.4654513 0.0020880699
0.24749494 0.47288653 0.0098224878
0.27661586 0.41677016 0.0037504435
0.1849854 0.456783 0.01044783
2.0418651 0.00778687 0.56104261
2.1077518 0.001593858 0.51531702
2.2014205 0.0010440052 0.5232107
2.121645 0.0073558688 0.6120218
2.1402133 0.0062933564 0.54701495
2.0360229 0.011193424 0.67723966
1.9763697 0.009529829 0.63497907
1.9463148 0.0033474863 0.71322465
1.9095021 0.003262639 0.74989355
2.0376108 0.0027074218 0.79893273
1.9438059 0.01156792 0.77829814
0.67141545 0.046139717 0.84266549
0.73551548 0.05386889 0.98082995
0.48422575 0.12037921 0.99175817
0.48486233 0.09650287 0.98973197
0.25340128 0.1000613 0.97793734
4.7584105 0.88903314 0.98336571
4.9770212 0.67191243 0.99901605
4.9412999 0.73153472 0.96235293
4.9842887 0.65475112 0.94105953
4.9091716 0.67403293 0.98184609
4.7945876 0.7249611 0.98585194
4.9865255 0.65211141 0.8413949
4.9733844 0.4096508 0.71967643
4.9811954 0.45849994 0.67462647
4.9861145 0.45171666 0.98186362
4.9550571 0.42357695 0.97087473
4.991827 0.39005899 0.9306463
4.9644566 0.43267214 0.90636194
4.8230524 0.35900915 0.99267846
4.8808193 0.28418559 0.99810642
4.9772553 0.55180824 0.92740399
2.0285254 0.022277534 0.92404586
2.0460839 0.008877039 0.85377598
2.1360183 0.0023083985 0.87478745
1.7891313 0.037653625 0.9280557
1.7440933 0.020264179 0.88180619
1.7828226 0.042322904 0.91334295
1.9015021 0.17569661 0.99210274
1.9610294 0.28681809 0.99909168
4.7494659 0.023787677 0.44812503
4.4882269 0.024741918 0.51652277
4.4650569 0.041712254 0.29796857
4.7495499 0.033957064 0.61990178
4.6663752 0.029915482 0.78227538
4.6749763 0.045059294 0.719396
4.7773008 0.043917924 0.69523633
4.5138903 0.034012496 0.99305707
4.5214448 0.11217508 0.99920648
4.4997544 0.087701678 0.99296439
4.4912968 0.010175347 0.85013759
4.5828214 0.0192146 0.84153146
4.9632626 0.69064653 0.71169901
4.9418888 0.65224981 0.65885395
4.9802966 0.87723732 0.72776473
4.9578843 0.87713426 0.60019732
4.8344398 0.97589415 0.68669206
4.9588628 0.62965524 0.6295222
4.9786658 0.57379687 0.7077179
0.12881207 0.47848222 0.96867251
0.037768126 0.37102902 0.87729985
0.082732439 0.98281467 0.25971821
0.0036973953 0.98984331 0.17486125
0.064849615 0.98066527 0.27480036
0.11245871 0.52238166 0.9822306
0.052646637 0.46935713 0.99346185
0.0055088997 0.4854157 0.98653954
0.087360144 0.69761252 0.98801666
0.043145418 0.67719805 0.97863179
0.25250936 0.99044603 0.59463894
0.02712822 0.25982803 0.87006426
0.035068512 0.88872689 0.83372521
0.089220285 0.88359141 0.98595041
4.3792815 0.042279989 0.99073887
4.4203448 0.084184349 0.98618597
4.3877549 0.13040349 0.98368382
4.2375598 0.2279146 0.94973356
4.2630501 0.29650474 0.99325919
4.2893877 0.20398757 0.96774065
4.2202826 0.16525596 0.99751133
4.2218208 0.25561112 0.9572103
0.019299984 0.22293469 0.98572671
0.19684458 0.18898931 0.99784988
0.080808401 0.41961718 0.96984446
0.18566298 0.41279376 0.97777224
0.019966602 0.37628537 0.96087408
0.0053122044 0.45548862 0.94250828
0.2217896 0.26809198 0.96739388
0.2435832 0.50597918 0.97921342
0.0049812794 0.6434015 0.83660614
0.034770966 0.69809628 0.88951087
0.0001308918 0.6352132 0.94719154
0.0019443035 0.61575705 0.79244
0.04135561 0.71509671 0.95374304
0.018481493 0.58507407 0.99373466
0.019567251 0.48838627 0.85927296
0.030023813 0.53295982 0.84390962
0.030485392 0.5011999 0.79889894
0.033814669 0.51639467 0.85491031
0.56830108 0.72355181 0.99121189
0.60948575 0.75657177 0.97673386
0.45945573 0.89160699 0.97909403
0.52581382 0.88788307 0.98018521
0.48775697 0.94861472 0.99057722
0.41520357 0.85802627 0.96995866
0.53329706 0.55906475 0.98787212
0.45504093 0.48813093 0.96558046
0.4878366 0.42182952 0.99316317
0.36691451 0.33943295 0.97847927
0.6638633 0.37459832 0.9961679
0.8067795 0.42218274 0.99333739
0.77003765 0.36566538 0.9903264
0.56028223 0.65135443 0.97509015
0.60256958 0.63084918 0.96896762
0.55615187 0.16677153 0.97078264
0.01747489 0.77324581 0.91003537
0.35364008 0.99837261 0.86472148
0.39021945 0.99542779 0.73358035
0.36190438 0.97698629 0.9074744
0.27662277 0.95784968 0.9802655
0.33657622 0.82643199 0.93759888
0.30170083 0.89436567 0.9583593
0.27253628 0.81928414 0.97742546
4.9694581 0.88853246 0.85111517
4.9759159 0.48625898 0.14337856
4.9646378 0.49014351 0.11549491
4.9796801 0.17973456 0.14591217
4.963376 0.24038029 0.021203607
4.9875345 0.41889971 0.082220137
4.954577 0.49365509 0.075940698
4.9744811 0.080130428 0.12579569
0.027416706 0.010625333 0.19002101
0.25951648 0.10769278 0.0060175657
0.24907041 0.12997347 0.0039958954
0.36516523 0.053720385 0.019219667
0.15306807 0.21052581 0.022374094
0.077302694 0.21675926 0.045656472
2.9659812 0.0097015202 0.55812734
2.9393432 0.010438234 0.50462586
2.4777172 0.91869396 0.98549902
2.4307463 0.89162332 0.99899387
3.1388237 0.64927977 0.99795109
3.0307226 0.57259041 0.99237728
2.9724863 0.65720093 0.99529994
3.0253189 0.62353033 0.96076053
2.540503 0.4098354 0.99977469
2.6108038 0.39623713 0.98565316
2.5833015 0.42902613 0.98264354
2.5909698 0.48407033 0.99883354
2.535881 0.55737495 0.99588066
2.5973253 0.53027761 0.99938881
2.7154055 0.54529464 0.98408222
2.8010011 0.60141814 0.98391521
2.6310775 0.3221637 0.98327059
2.457242 0.49356633 0.99441135
2.4242108 0.52981532 0.99990678
2.4881792 0.58050972 0.97220165
2.9475286 0.42700666 0.97485238
2.8892181 0.47659603 0.98995131
2.8611796 0.43458027 0.98548293
2.8778806 0.46394464 0.98663473
2.9530277 0.64019006 0.99731398
2.9952981 0.57668507 0.96766406
2.908875 0.2770524 0.98676527
2.9884388 0.32546079 0.99172622
2.9128628 0.51575047 0.97344321
2.9955664 0.98221546 0.953076
2.9035618 0.97656 0.99443328
2.9449575 0.9995718 0.94278103
2.921653 0.95345306 0.97523338
2.9966474 0.91241533 0.99879783
3.043221 0.9666692 0.97212881
3.0245261 0.965702 0.96122241
3.0074539 0.72798657 0.99461037
2.8876011 0.67529851 0.99764866
2.9649179 0.73081648 0.99338549
3.0459218 0.81337357 0.99494386
3.0975537 0.83473301 0.97364581
3.3958757 0.98843539 0.96449393
3.371031 0.99390727 0.89696735
3.349108 0.97853065 0.98296142
3.009083 0.30308384 0.98723161
3.0663288 0.30879796 0.98115683
3.0700164 0.29161775 0.99010521
2.9798522 0.22009474 0.99164212
3.1379085 0.32401729 0.99787217
3.1737602 0.32092559 0.99074781
3.2040024 0.37627816 0.99261415
3.2408619 0.21764246 0.99405479
2.9620581 0.10132128 0.99439722
2.915658 0.046842217 0.98546684
3.045584 0.054997712 0.98567945
4.1595573 0.3601436 0.98844892
4.1484818 0.32557869 0.98745561
4.1874228 0.29447299 0.98648149
3.2206132 0.32754827 0.97578222
3.2617168 0.26355469 0.97314316
3.3777215 0.94094962 0.99265158
3.4262204 0.94985509 0.97287136
3.4346368 0.89469391 0.98962045
3.4703801 0.94312179 0.97482181
2.7163503 0.87054765 0.96602309
2.7336416 0.79073304 0.9921456
2.7233233 0.8007288 0.97650695
2.77125 0.84456658 0.95734483
2.7042284 0.94947374 0.97578824
2.6349318 0.92644614 0.99418741
2.2581851 0.94152611 0.99237484
2.2654214 0.910308 0.99883002
2.3314652 0.91263753 0.9954921
3.579695 0.9828946 0.92736667
3.5805047 0.97438204 0.86023539
3.4920847 0.98592317 0.90861601
4.1366305 0.79529321 0.98098856
4.2444906 0.72763282 0.95503688
4.2539277 0.77590591 0.97451508
4.2262425 0.77013063 0.9694041
4.2321453 0.67495215 0.97827739
4.4614959 0.97458965 0.83459669
4.5922799 0.98715276 0.68566185
2.3718679 0.0015546978 0.90367472
2.357893 0.0077160597 0.98037636
2.3225758 0.0069729984 0.98915493
2.3243878 0.011637658 0.97328961
4.6390557 0.0027028322 0.86175376
3.6315026 0.013166964 0.51611388
3.6483572 0.017059654 0.47692096
3.7205279 0.021020383 0.46263707
3.8013909 0.036262602 0.43031505
3.8038282 0.018692285 0.38861403
4.9766798 0.66942519 0.54955834
4.4832158 0.83112949 0.97606736
4.5080595 0.77399534 0.98914748
4.5966849 0.81182945 0.98980606
4.6082501 0.92651415 0.97499675
4.5716586 0.86361587 0.95530176
4.3483043 0.76537305 0.990749
4.4082899 0.71635509 0.99076539
4.3878875 0.7029295 0.98138285
4.5580716 0.98967475 0.84996998
4.576375 0.98550791 0.83367872
4.5955653 0.94521087 0.97981197
4.7135134 0.91977501 0.98204184
